ply
format ascii 1.0
element vertex 1150
comment vertices
property float x
property float y
property float z
end_header
-0.375 0.09765625 -0.35546875
-0.375 0.09765625 -0.3515625
-0.375 0.09765625 -0.34765625
-0.375 0.1015625 -0.3671875
-0.375 0.1015625 -0.36328125
-0.375 0.1015625 -0.359375
-0.375 0.1015625 -0.35546875
-0.375 0.1015625 -0.3515625
-0.375 0.1015625 -0.34765625
-0.375 0.1015625 -0.34375
-0.375 0.10546875 -0.36328125
-0.375 0.10546875 -0.359375
-0.375 0.10546875 -0.35546875
-0.375 0.10546875 -0.3515625
-0.375 0.10546875 -0.34765625
-0.375 0.10546875 -0.34375
-0.375 0.10546875 -0.33984375
-0.375 0.109375 -0.359375
-0.375 0.109375 -0.35546875
-0.375 0.109375 -0.3515625
-0.375 0.109375 -0.34765625
-0.375 0.109375 -0.34375
-0.375 0.109375 -0.33984375
-0.375 0.109375 -0.3359375
-0.375 0.109375 -0.33203125
-0.375 0.11328125 -0.3515625
-0.375 0.11328125 -0.34765625
-0.375 0.11328125 -0.33984375
-0.375 0.11328125 -0.3359375
-0.375 0.11328125 -0.33203125
-0.375 0.11328125 -0.328125
-0.375 0.1171875 -0.34765625
-0.375 0.1171875 -0.34375
-0.375 0.1171875 -0.33984375
-0.375 0.1171875 -0.33203125
-0.375 0.1171875 -0.328125
-0.375 0.1171875 -0.32421875
-0.375 0.1171875 -0.3203125
-0.375 0.1171875 -0.31640625
-0.375 0.12109375 -0.328125
-0.375 0.12109375 -0.32421875
-0.375 0.12109375 -0.3203125
-0.375 0.12109375 -0.31640625
-0.375 0.12109375 -0.3125
-0.375 0.125 -0.328125
-0.375 0.125 -0.32421875
-0.375 0.125 -0.3203125
-0.375 0.125 -0.31640625
-0.375 0.125 -0.3125
-0.375 0.125 -0.3046875
-0.375 0.12890625 -0.32421875
-0.375 0.12890625 -0.3203125
-0.375 0.12890625 -0.3125
-0.375 0.12890625 -0.30859375
-0.375 0.12890625 -0.3046875
-0.375 0.12890625 -0.30078125
-0.375 0.12890625 -0.296875
-0.375 0.1328125 -0.3203125
-0.375 0.1328125 -0.31640625
-0.375 0.1328125 -0.3125
-0.375 0.1328125 -0.30859375
-0.375 0.1328125 -0.3046875
-0.375 0.1328125 -0.30078125
-0.375 0.1328125 -0.296875
-0.375 0.1328125 -0.29296875
-0.375 0.1328125 -0.2890625
-0.375 0.13671875 -0.31640625
-0.375 0.13671875 -0.3125
-0.375 0.13671875 -0.30859375
-0.375 0.13671875 -0.3046875
-0.375 0.13671875 -0.30078125
-0.375 0.13671875 -0.296875
-0.375 0.13671875 -0.29296875
-0.375 0.13671875 -0.2890625
-0.375 0.13671875 -0.28515625
-0.375 0.13671875 -0.28125
-0.375 0.140625 -0.3046875
-0.375 0.140625 -0.30078125
-0.375 0.140625 -0.296875
-0.375 0.140625 -0.29296875
-0.375 0.140625 -0.2890625
-0.375 0.140625 -0.28515625
-0.366071432828903198 -0.0234375 -0.3984375
-0.366071432828903198 -0.01953125 -0.40234375
-0.366071432828903198 -0.01953125 -0.3984375
-0.366071432828903198 -0.015625 -0.40234375
-0.366071432828903198 -0.015625 -0.3984375
-0.366071432828903198 -0.01171875 -0.40234375
-0.366071432828903198 -0.01171875 -0.3984375
-0.366071432828903198 -0.0078125 -0.40625
-0.366071432828903198 -0.0078125 -0.3984375
-0.366071432828903198 -0.0078125 -0.39453125
-0.366071432828903198 -0.00390625 -0.40625
-0.366071432828903198 -0.00390625 -0.390625
-0.366071432828903198 0 -0.41015625
-0.366071432828903198 0 -0.390625
-0.366071432828903198 0.00390625 -0.40625
-0.366071432828903198 0.00390625 -0.39453125
-0.366071432828903198 0.0078125 -0.40625
-0.366071432828903198 0.0078125 -0.390625
-0.366071432828903198 0.0078125 -0.38671875
-0.366071432828903198 0.01171875 -0.40625
-0.366071432828903198 0.01171875 -0.38671875
-0.366071432828903198 0.015625 -0.40234375
-0.366071432828903198 0.015625 -0.38671875
-0.366071432828903198 0.015625 -0.3828125
-0.366071432828903198 0.01953125 -0.40234375
-0.366071432828903198 0.01953125 -0.3984375
-0.366071432828903198 0.01953125 -0.39453125
-0.366071432828903198 0.01953125 -0.38671875
-0.366071432828903198 0.01953125 -0.3828125
-0.366071432828903198 0.0234375 -0.40234375
-0.366071432828903198 0.0234375 -0.3984375
-0.366071432828903198 0.0234375 -0.39453125
-0.366071432828903198 0.0234375 -0.390625
-0.366071432828903198 0.0234375 -0.38671875
-0.366071432828903198 0.02734375 -0.40234375
-0.366071432828903198 0.02734375 -0.3984375
-0.366071432828903198 0.02734375 -0.39453125
-0.366071432828903198 0.02734375 -0.390625
-0.366071432828903198 0.02734375 -0.38671875
-0.366071432828903198 0.03125 -0.40234375
-0.366071432828903198 0.03125 -0.39453125
-0.366071432828903198 0.03125 -0.390625
-0.366071432828903198 0.03515625 -0.3984375
-0.366071432828903198 0.03515625 -0.39453125
-0.366071432828903198 0.03515625 -0.390625
-0.366071432828903198 0.0390625 -0.3984375
-0.366071432828903198 0.0390625 -0.39453125
-0.366071432828903198 0.0390625 -0.390625
-0.366071432828903198 0.04296875 -0.3984375
-0.366071432828903198 0.04296875 -0.39453125
-0.366071432828903198 0.04296875 -0.390625
-0.366071432828903198 0.046875 -0.3984375
-0.366071432828903198 0.046875 -0.39453125
-0.366071432828903198 0.046875 -0.390625
-0.366071432828903198 0.046875 -0.38671875
-0.366071432828903198 0.05078125 -0.3984375
-0.366071432828903198 0.05078125 -0.39453125
-0.366071432828903198 0.05078125 -0.390625
-0.366071432828903198 0.05078125 -0.38671875
-0.366071432828903198 0.0546875 -0.39453125
-0.366071432828903198 0.0546875 -0.390625
-0.366071432828903198 0.0546875 -0.38671875
-0.366071432828903198 0.0546875 -0.3828125
-0.366071432828903198 0.05859375 -0.39453125
-0.366071432828903198 0.05859375 -0.390625
-0.366071432828903198 0.05859375 -0.38671875
-0.366071432828903198 0.05859375 -0.3828125
-0.366071432828903198 0.0625 -0.39453125
-0.366071432828903198 0.0625 -0.390625
-0.366071432828903198 0.0625 -0.38671875
-0.366071432828903198 0.0625 -0.3828125
-0.366071432828903198 0.0625 -0.37890625
-0.366071432828903198 0.06640625 -0.390625
-0.366071432828903198 0.06640625 -0.38671875
-0.366071432828903198 0.06640625 -0.3828125
-0.366071432828903198 0.06640625 -0.37890625
-0.366071432828903198 0.0703125 -0.390625
-0.366071432828903198 0.0703125 -0.38671875
-0.366071432828903198 0.0703125 -0.3828125
-0.366071432828903198 0.0703125 -0.37890625
-0.366071432828903198 0.0703125 -0.375
-0.366071432828903198 0.07421875 -0.38671875
-0.366071432828903198 0.07421875 -0.3828125
-0.366071432828903198 0.07421875 -0.37890625
-0.366071432828903198 0.07421875 -0.375
-0.366071432828903198 0.078125 -0.38671875
-0.366071432828903198 0.078125 -0.3828125
-0.366071432828903198 0.078125 -0.37890625
-0.366071432828903198 0.078125 -0.375
-0.366071432828903198 0.078125 -0.37109375
-0.366071432828903198 0.08203125 -0.3828125
-0.366071432828903198 0.08203125 -0.37890625
-0.366071432828903198 0.08203125 -0.3671875
-0.366071432828903198 0.08203125 -0.36328125
-0.366071432828903198 0.0859375 -0.3828125
-0.366071432828903198 0.0859375 -0.3671875
-0.366071432828903198 0.0859375 -0.36328125
-0.366071432828903198 0.08984375 -0.37890625
-0.366071432828903198 0.08984375 -0.36328125
-0.366071432828903198 0.08984375 -0.359375
-0.366071432828903198 0.09375 -0.37890625
-0.366071432828903198 0.09375 -0.375
-0.366071432828903198 0.09375 -0.359375
-0.366071432828903198 0.09375 -0.35546875
-0.366071432828903198 0.09375 -0.3515625
-0.366071432828903198 0.09765625 -0.37109375
-0.366071432828903198 0.09765625 -0.35546875
-0.366071432828903198 0.09765625 -0.3515625
-0.366071432828903198 0.09765625 -0.34765625
-0.366071432828903198 0.1015625 -0.37109375
-0.366071432828903198 0.1015625 -0.3671875
-0.366071432828903198 0.1015625 -0.34765625
-0.366071432828903198 0.1015625 -0.34375
-0.366071432828903198 0.10546875 -0.36328125
-0.366071432828903198 0.10546875 -0.33984375
-0.366071432828903198 0.10546875 -0.3359375
-0.366071432828903198 0.109375 -0.359375
-0.366071432828903198 0.109375 -0.3359375
-0.366071432828903198 0.109375 -0.33203125
-0.366071432828903198 0.11328125 -0.35546875
-0.366071432828903198 0.11328125 -0.328125
-0.366071432828903198 0.11328125 -0.32421875
-0.366071432828903198 0.1171875 -0.3515625
-0.366071432828903198 0.1171875 -0.34765625
-0.366071432828903198 0.1171875 -0.3359375
-0.366071432828903198 0.1171875 -0.3203125
-0.366071432828903198 0.12109375 -0.34375
-0.366071432828903198 0.12109375 -0.33984375
-0.366071432828903198 0.12109375 -0.3359375
-0.366071432828903198 0.12109375 -0.33203125
-0.366071432828903198 0.12109375 -0.31640625
-0.366071432828903198 0.12109375 -0.3046875
-0.366071432828903198 0.125 -0.33984375
-0.366071432828903198 0.125 -0.3359375
-0.366071432828903198 0.125 -0.33203125
-0.366071432828903198 0.125 -0.31640625
-0.366071432828903198 0.125 -0.3125
-0.366071432828903198 0.125 -0.30859375
-0.366071432828903198 0.125 -0.30078125
-0.366071432828903198 0.125 -0.296875
-0.366071432828903198 0.12890625 -0.33203125
-0.366071432828903198 0.12890625 -0.328125
-0.366071432828903198 0.12890625 -0.31640625
-0.366071432828903198 0.12890625 -0.30859375
-0.366071432828903198 0.12890625 -0.296875
-0.366071432828903198 0.1328125 -0.328125
-0.366071432828903198 0.1328125 -0.32421875
-0.366071432828903198 0.1328125 -0.3125
-0.366071432828903198 0.1328125 -0.30859375
-0.366071432828903198 0.1328125 -0.29296875
-0.366071432828903198 0.1328125 -0.2890625
-0.366071432828903198 0.1328125 -0.28515625
-0.366071432828903198 0.13671875 -0.3203125
-0.366071432828903198 0.13671875 -0.31640625
-0.366071432828903198 0.13671875 -0.3125
-0.366071432828903198 0.13671875 -0.30859375
-0.366071432828903198 0.13671875 -0.28515625
-0.366071432828903198 0.13671875 -0.28125
-0.366071432828903198 0.140625 -0.3046875
-0.366071432828903198 0.140625 -0.30078125
-0.366071432828903198 0.140625 -0.296875
-0.366071432828903198 0.140625 -0.29296875
-0.366071432828903198 0.140625 -0.2890625
-0.366071432828903198 0.140625 -0.28515625
-0.357142865657806396 -0.03515625 -0.3984375
-0.357142865657806396 -0.03515625 -0.39453125
-0.357142865657806396 -0.03125 -0.3984375
-0.357142865657806396 -0.03125 -0.39453125
-0.357142865657806396 -0.02734375 -0.40234375
-0.357142865657806396 -0.02734375 -0.3984375
-0.357142865657806396 -0.02734375 -0.39453125
-0.357142865657806396 -0.02734375 -0.390625
-0.357142865657806396 -0.02734375 -0.38671875
-0.357142865657806396 -0.0234375 -0.40234375
-0.357142865657806396 -0.0234375 -0.39453125
-0.357142865657806396 -0.0234375 -0.390625
-0.357142865657806396 -0.0234375 -0.38671875
-0.357142865657806396 -0.01953125 -0.40234375
-0.357142865657806396 -0.01953125 -0.39453125
-0.357142865657806396 -0.01953125 -0.390625
-0.357142865657806396 -0.01953125 -0.38671875
-0.357142865657806396 -0.015625 -0.40234375
-0.357142865657806396 -0.015625 -0.39453125
-0.357142865657806396 -0.015625 -0.390625
-0.357142865657806396 -0.01171875 -0.40234375
-0.357142865657806396 -0.01171875 -0.39453125
-0.357142865657806396 -0.01171875 -0.390625
-0.357142865657806396 -0.0078125 -0.40234375
-0.357142865657806396 -0.0078125 -0.390625
-0.357142865657806396 -0.00390625 -0.40234375
-0.357142865657806396 -0.00390625 -0.38671875
-0.357142865657806396 0 -0.41015625
-0.357142865657806396 0 -0.40625
-0.357142865657806396 0 -0.38671875
-0.357142865657806396 0 -0.3828125
-0.357142865657806396 0.00390625 -0.40625
-0.357142865657806396 0.00390625 -0.390625
-0.357142865657806396 0.00390625 -0.38671875
-0.357142865657806396 0.0078125 -0.40625
-0.357142865657806396 0.0078125 -0.390625
-0.357142865657806396 0.0078125 -0.38671875
-0.357142865657806396 0.01171875 -0.40234375
-0.357142865657806396 0.01171875 -0.39453125
-0.357142865657806396 0.01171875 -0.390625
-0.357142865657806396 0.01171875 -0.38671875
-0.357142865657806396 0.015625 -0.40234375
-0.357142865657806396 0.015625 -0.3984375
-0.357142865657806396 0.015625 -0.39453125
-0.357142865657806396 0.015625 -0.390625
-0.357142865657806396 0.01953125 -0.40234375
-0.357142865657806396 0.01953125 -0.390625
-0.357142865657806396 0.0234375 -0.40234375
-0.357142865657806396 0.02734375 -0.40234375
-0.357142865657806396 0.03125 -0.40234375
-0.357142865657806396 0.03125 -0.3984375
-0.357142865657806396 0.08203125 -0.375
-0.357142865657806396 0.08203125 -0.37109375
-0.357142865657806396 0.0859375 -0.37890625
-0.357142865657806396 0.0859375 -0.375
-0.357142865657806396 0.0859375 -0.37109375
-0.357142865657806396 0.08984375 -0.37890625
-0.357142865657806396 0.08984375 -0.375
-0.357142865657806396 0.08984375 -0.37109375
-0.357142865657806396 0.08984375 -0.3671875
-0.357142865657806396 0.09375 -0.375
-0.357142865657806396 0.09375 -0.37109375
-0.357142865657806396 0.09375 -0.3671875
-0.357142865657806396 0.09375 -0.36328125
-0.357142865657806396 0.09765625 -0.37109375
-0.357142865657806396 0.09765625 -0.3671875
-0.357142865657806396 0.09765625 -0.36328125
-0.357142865657806396 0.09765625 -0.359375
-0.357142865657806396 0.1015625 -0.37109375
-0.357142865657806396 0.1015625 -0.3671875
-0.357142865657806396 0.1015625 -0.36328125
-0.357142865657806396 0.1015625 -0.359375
-0.357142865657806396 0.1015625 -0.35546875
-0.357142865657806396 0.1015625 -0.3515625
-0.357142865657806396 0.10546875 -0.3671875
-0.357142865657806396 0.10546875 -0.36328125
-0.357142865657806396 0.10546875 -0.359375
-0.357142865657806396 0.10546875 -0.35546875
-0.357142865657806396 0.10546875 -0.3515625
-0.357142865657806396 0.10546875 -0.34765625
-0.357142865657806396 0.10546875 -0.34375
-0.357142865657806396 0.109375 -0.35546875
-0.357142865657806396 0.109375 -0.3515625
-0.357142865657806396 0.109375 -0.34765625
-0.357142865657806396 0.109375 -0.34375
-0.357142865657806396 0.109375 -0.33984375
-0.357142865657806396 0.11328125 -0.3515625
-0.357142865657806396 0.11328125 -0.34765625
-0.357142865657806396 0.11328125 -0.34375
-0.357142865657806396 0.11328125 -0.33984375
-0.357142865657806396 0.11328125 -0.3359375
-0.357142865657806396 0.11328125 -0.33203125
-0.357142865657806396 0.11328125 -0.328125
-0.357142865657806396 0.1171875 -0.3515625
-0.357142865657806396 0.1171875 -0.34765625
-0.357142865657806396 0.1171875 -0.34375
-0.357142865657806396 0.1171875 -0.33984375
-0.357142865657806396 0.1171875 -0.3359375
-0.357142865657806396 0.1171875 -0.33203125
-0.357142865657806396 0.1171875 -0.328125
-0.357142865657806396 0.1171875 -0.32421875
-0.357142865657806396 0.12109375 -0.34765625
-0.357142865657806396 0.12109375 -0.34375
-0.357142865657806396 0.12109375 -0.33984375
-0.357142865657806396 0.12109375 -0.3359375
-0.357142865657806396 0.12109375 -0.33203125
-0.357142865657806396 0.12109375 -0.328125
-0.357142865657806396 0.12109375 -0.32421875
-0.357142865657806396 0.12109375 -0.3203125
-0.357142865657806396 0.125 -0.3359375
-0.357142865657806396 0.125 -0.33203125
-0.357142865657806396 0.125 -0.328125
-0.357142865657806396 0.125 -0.32421875
-0.357142865657806396 0.125 -0.3203125
-0.357142865657806396 0.125 -0.3125
-0.357142865657806396 0.125 -0.3046875
-0.357142865657806396 0.125 -0.30078125
-0.357142865657806396 0.12890625 -0.328125
-0.357142865657806396 0.12890625 -0.32421875
-0.357142865657806396 0.12890625 -0.3203125
-0.357142865657806396 0.12890625 -0.3125
-0.357142865657806396 0.12890625 -0.3046875
-0.357142865657806396 0.12890625 -0.30078125
-0.357142865657806396 0.12890625 -0.296875
-0.357142865657806396 0.1328125 -0.32421875
-0.357142865657806396 0.1328125 -0.3203125
-0.357142865657806396 0.1328125 -0.31640625
-0.357142865657806396 0.1328125 -0.3046875
-0.357142865657806396 0.1328125 -0.30078125
-0.357142865657806396 0.1328125 -0.296875
-0.357142865657806396 0.1328125 -0.29296875
-0.357142865657806396 0.13671875 -0.3046875
-0.357142865657806396 0.13671875 -0.30078125
-0.357142865657806396 0.13671875 -0.296875
-0.357142865657806396 0.13671875 -0.29296875
-0.357142865657806396 0.13671875 -0.2890625
-0.357142865657806396 0.140625 -0.30078125
-0.357142865657806396 0.140625 -0.296875
-0.357142865657806396 0.140625 -0.29296875
-0.357142865657806396 0.140625 -0.2890625
-0.348214298486709595 -0.05078125 -0.3984375
-0.348214298486709595 -0.05078125 -0.39453125
-0.348214298486709595 -0.05078125 -0.390625
-0.348214298486709595 -0.046875 -0.3984375
-0.348214298486709595 -0.046875 -0.39453125
-0.348214298486709595 -0.046875 -0.390625
-0.348214298486709595 -0.04296875 -0.40234375
-0.348214298486709595 -0.04296875 -0.3984375
-0.348214298486709595 -0.04296875 -0.39453125
-0.348214298486709595 -0.04296875 -0.390625
-0.348214298486709595 -0.0390625 -0.40234375
-0.348214298486709595 -0.0390625 -0.3984375
-0.348214298486709595 -0.0390625 -0.39453125
-0.348214298486709595 -0.0390625 -0.390625
-0.348214298486709595 -0.03515625 -0.40234375
-0.348214298486709595 -0.03515625 -0.3984375
-0.348214298486709595 -0.03515625 -0.39453125
-0.348214298486709595 -0.03515625 -0.390625
-0.348214298486709595 -0.03125 -0.40234375
-0.348214298486709595 -0.02734375 -0.40234375
-0.348214298486709595 -0.02734375 -0.3984375
-0.348214298486709595 -0.02734375 -0.39453125
-0.348214298486709595 -0.02734375 -0.390625
-0.348214298486709595 -0.02734375 -0.38671875
-0.348214298486709595 -0.0234375 -0.3984375
-0.348214298486709595 -0.0234375 -0.3828125
-0.348214298486709595 -0.01953125 -0.40234375
-0.348214298486709595 -0.01953125 -0.38671875
-0.348214298486709595 -0.01953125 -0.3828125
-0.348214298486709595 -0.015625 -0.40234375
-0.348214298486709595 -0.015625 -0.38671875
-0.348214298486709595 -0.015625 -0.3828125
-0.348214298486709595 -0.01171875 -0.40625
-0.348214298486709595 -0.01171875 -0.38671875
-0.348214298486709595 -0.0078125 -0.40625
-0.348214298486709595 -0.0078125 -0.390625
-0.348214298486709595 -0.0078125 -0.38671875
-0.348214298486709595 -0.00390625 -0.40625
-0.348214298486709595 -0.00390625 -0.40234375
-0.348214298486709595 -0.00390625 -0.39453125
-0.348214298486709595 -0.00390625 -0.390625
-0.348214298486709595 -0.00390625 -0.38671875
-0.348214298486709595 0 -0.40625
-0.348214298486709595 0 -0.40234375
-0.348214298486709595 0 -0.3984375
-0.348214298486709595 0 -0.39453125
-0.348214298486709595 0 -0.390625
-0.348214298486709595 0.00390625 -0.40625
-0.348214298486709595 0.00390625 -0.40234375
-0.348214298486709595 0.00390625 -0.3984375
-0.348214298486709595 0.00390625 -0.39453125
-0.348214298486709595 0.00390625 -0.390625
-0.348214298486709595 0.0078125 -0.40234375
-0.348214298486709595 0.0078125 -0.3984375
-0.348214298486709595 0.0078125 -0.39453125
-0.348214298486709595 0.01171875 -0.40234375
-0.348214298486709595 0.01171875 -0.3984375
-0.348214298486709595 0.015625 -0.40234375
-0.348214298486709595 0.015625 -0.3984375
-0.339285701513290405 -0.05859375 -0.39453125
-0.339285701513290405 -0.05859375 -0.390625
-0.339285701513290405 -0.0546875 -0.3984375
-0.339285701513290405 -0.0546875 -0.39453125
-0.339285701513290405 -0.0546875 -0.390625
-0.339285701513290405 -0.0546875 -0.38671875
-0.339285701513290405 -0.05078125 -0.40234375
-0.339285701513290405 -0.05078125 -0.38671875
-0.339285701513290405 -0.046875 -0.40234375
-0.339285701513290405 -0.046875 -0.390625
-0.339285701513290405 -0.04296875 -0.40234375
-0.339285701513290405 -0.04296875 -0.38671875
-0.339285701513290405 -0.04296875 -0.3828125
-0.339285701513290405 -0.0390625 -0.40234375
-0.339285701513290405 -0.0390625 -0.38671875
-0.339285701513290405 -0.0390625 -0.3828125
-0.339285701513290405 -0.03515625 -0.40234375
-0.339285701513290405 -0.03515625 -0.38671875
-0.339285701513290405 -0.03125 -0.40234375
-0.339285701513290405 -0.03125 -0.3984375
-0.339285701513290405 -0.03125 -0.39453125
-0.339285701513290405 -0.03125 -0.390625
-0.339285701513290405 -0.03125 -0.38671875
-0.339285701513290405 -0.02734375 -0.40234375
-0.339285701513290405 -0.02734375 -0.3828125
-0.339285701513290405 -0.0234375 -0.3984375
-0.339285701513290405 -0.0234375 -0.38671875
-0.339285701513290405 -0.01953125 -0.3984375
-0.339285701513290405 -0.01953125 -0.390625
-0.339285701513290405 -0.015625 -0.40234375
-0.339285701513290405 -0.015625 -0.3984375
-0.339285701513290405 -0.015625 -0.39453125
-0.339285701513290405 -0.015625 -0.390625
-0.339285701513290405 -0.01171875 -0.40234375
-0.339285701513290405 -0.01171875 -0.3984375
-0.339285701513290405 -0.01171875 -0.39453125
-0.339285701513290405 -0.01171875 -0.390625
-0.339285701513290405 -0.0078125 -0.40234375
-0.339285701513290405 -0.0078125 -0.3984375
-0.339285701513290405 -0.0078125 -0.39453125
-0.339285701513290405 -0.00390625 -0.3984375
-0.330357134342193604 -0.06640625 -0.40234375
-0.330357134342193604 -0.0625 -0.40234375
-0.330357134342193604 -0.0625 -0.3984375
-0.330357134342193604 -0.0625 -0.39453125
-0.330357134342193604 -0.0625 -0.390625
-0.330357134342193604 -0.05859375 -0.40234375
-0.330357134342193604 -0.05859375 -0.3984375
-0.330357134342193604 -0.05859375 -0.38671875
-0.330357134342193604 -0.0546875 -0.40234375
-0.330357134342193604 -0.0546875 -0.38671875
-0.330357134342193604 -0.05078125 -0.40234375
-0.330357134342193604 -0.05078125 -0.38671875
-0.330357134342193604 -0.046875 -0.40625
-0.330357134342193604 -0.046875 -0.38671875
-0.330357134342193604 -0.04296875 -0.40234375
-0.330357134342193604 -0.04296875 -0.390625
-0.330357134342193604 -0.0390625 -0.3984375
-0.330357134342193604 -0.0390625 -0.390625
-0.330357134342193604 -0.03515625 -0.3984375
-0.330357134342193604 -0.03515625 -0.38671875
-0.330357134342193604 -0.03125 -0.3984375
-0.330357134342193604 -0.03125 -0.39453125
-0.330357134342193604 -0.03125 -0.390625
-0.330357134342193604 -0.03125 -0.38671875
-0.330357134342193604 -0.02734375 -0.3984375
-0.330357134342193604 -0.02734375 -0.39453125
-0.330357134342193604 -0.02734375 -0.390625
-0.330357134342193604 -0.02734375 -0.38671875
-0.330357134342193604 -0.0234375 -0.3984375
-0.330357134342193604 -0.0234375 -0.39453125
-0.330357134342193604 -0.0234375 -0.390625
-0.330357134342193604 -0.01953125 -0.3984375
-0.330357134342193604 -0.01953125 -0.39453125
-0.330357134342193604 -0.01953125 -0.390625
-0.321428567171096802 -0.07421875 -0.40234375
-0.321428567171096802 -0.07421875 -0.3984375
-0.321428567171096802 -0.07421875 -0.39453125
-0.321428567171096802 -0.0703125 -0.40625
-0.321428567171096802 -0.0703125 -0.40234375
-0.321428567171096802 -0.0703125 -0.3984375
-0.321428567171096802 -0.0703125 -0.39453125
-0.321428567171096802 -0.06640625 -0.40625
-0.321428567171096802 -0.06640625 -0.3984375
-0.321428567171096802 -0.06640625 -0.39453125
-0.321428567171096802 -0.06640625 -0.390625
-0.321428567171096802 -0.0625 -0.40625
-0.321428567171096802 -0.0625 -0.38671875
-0.321428567171096802 -0.05859375 -0.40234375
-0.321428567171096802 -0.05859375 -0.38671875
-0.321428567171096802 -0.0546875 -0.40234375
-0.321428567171096802 -0.0546875 -0.38671875
-0.321428567171096802 -0.05078125 -0.40234375
-0.321428567171096802 -0.05078125 -0.390625
-0.321428567171096802 -0.046875 -0.40234375
-0.321428567171096802 -0.046875 -0.390625
-0.321428567171096802 -0.04296875 -0.40234375
-0.321428567171096802 -0.04296875 -0.39453125
-0.321428567171096802 -0.04296875 -0.390625
-0.321428567171096802 -0.0390625 -0.3984375
-0.321428567171096802 -0.0390625 -0.39453125
-0.321428567171096802 -0.0390625 -0.390625
-0.321428567171096802 -0.03515625 -0.39453125
-0.321428567171096802 -0.03515625 -0.390625
-0.3125 -0.078125 -0.39453125
-0.3125 -0.07421875 -0.40234375
-0.3125 -0.07421875 -0.3984375
-0.3125 -0.07421875 -0.390625
-0.3125 -0.0703125 -0.40625
-0.3125 -0.0703125 -0.40234375
-0.3125 -0.0703125 -0.390625
-0.3125 -0.06640625 -0.41015625
-0.3125 -0.06640625 -0.40625
-0.3125 -0.06640625 -0.40234375
-0.3125 -0.06640625 -0.3984375
-0.3125 -0.06640625 -0.39453125
-0.3125 -0.06640625 -0.390625
-0.3125 -0.06640625 -0.38671875
-0.3125 -0.0625 -0.41015625
-0.3125 -0.0625 -0.40625
-0.3125 -0.0625 -0.40234375
-0.3125 -0.0625 -0.3984375
-0.3125 -0.0625 -0.39453125
-0.3125 -0.0625 -0.390625
-0.3125 -0.05859375 -0.40625
-0.3125 -0.05859375 -0.40234375
-0.3125 -0.05859375 -0.3984375
-0.3125 -0.05859375 -0.39453125
-0.3125 -0.05859375 -0.390625
-0.3125 -0.0546875 -0.40234375
-0.3125 -0.0546875 -0.3984375
-0.3125 -0.0546875 -0.39453125
-0.3125 -0.0546875 -0.390625
-0.3125 -0.05078125 -0.40234375
-0.3125 -0.05078125 -0.3984375
-0.3125 -0.05078125 -0.39453125
-0.3125 -0.05078125 -0.390625
-0.3125 -0.046875 -0.40234375
-0.3125 -0.046875 -0.3984375
-0.3125 -0.046875 -0.39453125
-0.3125 -0.04296875 -0.3984375
-0.303571432828903198 -0.078125 -0.39453125
-0.303571432828903198 -0.07421875 -0.40234375
-0.303571432828903198 -0.07421875 -0.3984375
-0.303571432828903198 -0.07421875 -0.390625
-0.303571432828903198 -0.0703125 -0.3984375
-0.303571432828903198 -0.0703125 -0.39453125
-0.294642865657806396 -0.08203125 -0.40625
-0.294642865657806396 -0.08203125 -0.40234375
-0.294642865657806396 -0.08203125 -0.3984375
-0.294642865657806396 -0.08203125 -0.39453125
-0.294642865657806396 -0.078125 -0.41015625
-0.294642865657806396 -0.078125 -0.40625
-0.294642865657806396 -0.078125 -0.40234375
-0.294642865657806396 -0.078125 -0.3984375
-0.294642865657806396 -0.078125 -0.39453125
-0.294642865657806396 -0.078125 -0.390625
-0.294642865657806396 -0.07421875 -0.41015625
-0.294642865657806396 -0.07421875 -0.40625
-0.294642865657806396 -0.07421875 -0.39453125
-0.294642865657806396 -0.0703125 -0.40234375
-0.294642865657806396 -0.0703125 -0.3984375
-0.294642865657806396 -0.06640625 -0.40234375
-0.285714298486709595 -0.08984375 -0.40234375
-0.285714298486709595 -0.08984375 -0.3984375
-0.285714298486709595 -0.0859375 -0.41015625
-0.285714298486709595 -0.0859375 -0.40625
-0.285714298486709595 -0.0859375 -0.40234375
-0.285714298486709595 -0.0859375 -0.3984375
-0.285714298486709595 -0.08203125 -0.4140625
-0.285714298486709595 -0.08203125 -0.41015625
-0.285714298486709595 -0.08203125 -0.3984375
-0.285714298486709595 -0.078125 -0.41015625
-0.285714298486709595 -0.078125 -0.3984375
-0.285714298486709595 -0.07421875 -0.40625
-0.285714298486709595 -0.07421875 -0.40234375
-0.285714298486709595 -0.07421875 -0.3984375
-0.285714298486709595 -0.0703125 -0.40625
-0.285714298486709595 -0.0703125 -0.40234375
-0.276785701513290405 -0.08984375 -0.40234375
-0.276785701513290405 -0.0859375 -0.41015625
-0.276785701513290405 -0.0859375 -0.40625
-0.276785701513290405 -0.0859375 -0.40234375
-0.276785701513290405 -0.08203125 -0.4140625
-0.276785701513290405 -0.08203125 -0.40234375
-0.276785701513290405 -0.078125 -0.41015625
-0.276785701513290405 -0.078125 -0.40625
-0.276785701513290405 -0.078125 -0.40234375
-0.276785701513290405 -0.07421875 -0.41015625
-0.276785701513290405 -0.07421875 -0.40625
-0.267857134342193604 -0.1015625 -0.4140625
-0.267857134342193604 -0.1015625 -0.41015625
-0.267857134342193604 -0.1015625 -0.40625
-0.267857134342193604 -0.09765625 -0.41796875
-0.267857134342193604 -0.09765625 -0.4140625
-0.267857134342193604 -0.09765625 -0.41015625
-0.267857134342193604 -0.09765625 -0.40625
-0.267857134342193604 -0.09765625 -0.40234375
-0.267857134342193604 -0.09375 -0.41796875
-0.267857134342193604 -0.09375 -0.4140625
-0.267857134342193604 -0.09375 -0.41015625
-0.267857134342193604 -0.09375 -0.40625
-0.267857134342193604 -0.09375 -0.40234375
-0.267857134342193604 -0.08984375 -0.41796875
-0.267857134342193604 -0.08984375 -0.4140625
-0.267857134342193604 -0.08984375 -0.41015625
-0.267857134342193604 -0.08984375 -0.40625
-0.267857134342193604 -0.08984375 -0.40234375
-0.267857134342193604 -0.0859375 -0.41796875
-0.267857134342193604 -0.0859375 -0.4140625
-0.267857134342193604 -0.0859375 -0.40234375
-0.267857134342193604 -0.08203125 -0.41796875
-0.267857134342193604 -0.08203125 -0.40625
-0.267857134342193604 -0.08203125 -0.40234375
-0.267857134342193604 -0.078125 -0.4140625
-0.267857134342193604 -0.078125 -0.41015625
-0.267857134342193604 -0.07421875 -0.4140625
-0.258928567171096802 -0.09375 -0.4140625
-0.258928567171096802 -0.09375 -0.41015625
-0.258928567171096802 -0.08984375 -0.41796875
-0.258928567171096802 -0.08984375 -0.40625
-0.258928567171096802 -0.0859375 -0.41796875
-0.258928567171096802 -0.0859375 -0.40625
-0.258928567171096802 -0.08203125 -0.4140625
-0.258928567171096802 -0.08203125 -0.41015625
-0.258928567171096802 -0.08203125 -0.40625
-0.25 -0.09765625 -0.42578125
-0.25 -0.09765625 -0.421875
-0.25 -0.09765625 -0.41796875
-0.25 -0.09765625 -0.4140625
-0.25 -0.09765625 -0.41015625
-0.25 -0.09375 -0.42578125
-0.25 -0.09375 -0.421875
-0.25 -0.09375 -0.41796875
-0.25 -0.09375 -0.41015625
-0.25 -0.08984375 -0.421875
-0.25 -0.08984375 -0.41796875
-0.25 -0.08984375 -0.41015625
-0.25 -0.0859375 -0.4140625
-0.25 -0.0859375 -0.41015625
-0.25 -0.08203125 -0.4140625
-0.25 -0.08203125 -0.41015625
-0.25 -0.078125 -0.4140625
-0.241071432828903198 -0.1015625 -0.42578125
-0.241071432828903198 -0.1015625 -0.421875
-0.241071432828903198 -0.1015625 -0.41796875
-0.241071432828903198 -0.1015625 -0.4140625
-0.241071432828903198 -0.1015625 -0.41015625
-0.241071432828903198 -0.09765625 -0.4296875
-0.241071432828903198 -0.09765625 -0.41015625
-0.241071432828903198 -0.09375 -0.4296875
-0.241071432828903198 -0.09375 -0.41015625
-0.241071432828903198 -0.08984375 -0.42578125
-0.241071432828903198 -0.08984375 -0.4140625
-0.241071432828903198 -0.0859375 -0.421875
-0.241071432828903198 -0.0859375 -0.41796875
-0.241071432828903198 -0.0859375 -0.4140625
-0.232142850756645203 -0.10546875 -0.421875
-0.232142850756645203 -0.10546875 -0.41796875
-0.232142850756645203 -0.1015625 -0.42578125
-0.232142850756645203 -0.1015625 -0.4140625
-0.232142850756645203 -0.1015625 -0.41015625
-0.232142850756645203 -0.09765625 -0.4296875
-0.232142850756645203 -0.09765625 -0.41015625
-0.232142850756645203 -0.09375 -0.4296875
-0.232142850756645203 -0.09375 -0.41015625
-0.232142850756645203 -0.08984375 -0.42578125
-0.232142850756645203 -0.08984375 -0.4140625
-0.232142850756645203 -0.0859375 -0.42578125
-0.232142850756645203 -0.0859375 -0.421875
-0.232142850756645203 -0.0859375 -0.41796875
-0.223214283585548401 -0.10546875 -0.42578125
-0.223214283585548401 -0.10546875 -0.421875
-0.223214283585548401 -0.10546875 -0.41796875
-0.223214283585548401 -0.10546875 -0.4140625
-0.223214283585548401 -0.1015625 -0.4296875
-0.223214283585548401 -0.1015625 -0.41015625
-0.223214283585548401 -0.09765625 -0.4296875
-0.223214283585548401 -0.09765625 -0.41015625
-0.223214283585548401 -0.09375 -0.4296875
-0.223214283585548401 -0.09375 -0.41015625
-0.223214283585548401 -0.08984375 -0.4296875
-0.223214283585548401 -0.08984375 -0.42578125
-0.223214283585548401 -0.08984375 -0.4140625
-0.223214283585548401 -0.0859375 -0.421875
-0.223214283585548401 -0.0859375 -0.41796875
-0.223214283585548401 -0.08203125 -0.41796875
-0.214285716414451599 -0.109375 -0.42578125
-0.214285716414451599 -0.109375 -0.421875
-0.214285716414451599 -0.109375 -0.41796875
-0.214285716414451599 -0.109375 -0.4140625
-0.214285716414451599 -0.10546875 -0.4296875
-0.214285716414451599 -0.10546875 -0.4140625
-0.214285716414451599 -0.1015625 -0.43359375
-0.214285716414451599 -0.1015625 -0.41015625
-0.214285716414451599 -0.09765625 -0.4296875
-0.214285716414451599 -0.09765625 -0.41015625
-0.214285716414451599 -0.09375 -0.4296875
-0.214285716414451599 -0.09375 -0.41015625
-0.214285716414451599 -0.08984375 -0.42578125
-0.214285716414451599 -0.08984375 -0.4140625
-0.214285716414451599 -0.0859375 -0.421875
-0.214285716414451599 -0.0859375 -0.4140625
-0.214285716414451599 -0.08203125 -0.421875
-0.214285716414451599 -0.08203125 -0.41796875
-0.214285716414451599 -0.08203125 -0.4140625
-0.205357149243354797 -0.109375 -0.4296875
-0.205357149243354797 -0.109375 -0.42578125
-0.205357149243354797 -0.109375 -0.421875
-0.205357149243354797 -0.109375 -0.41796875
-0.205357149243354797 -0.109375 -0.4140625
-0.205357149243354797 -0.10546875 -0.43359375
-0.205357149243354797 -0.10546875 -0.41015625
-0.205357149243354797 -0.1015625 -0.43359375
-0.205357149243354797 -0.1015625 -0.41015625
-0.205357149243354797 -0.09765625 -0.43359375
-0.205357149243354797 -0.09765625 -0.41015625
-0.205357149243354797 -0.09375 -0.43359375
-0.205357149243354797 -0.09375 -0.4140625
-0.205357149243354797 -0.08984375 -0.4296875
-0.205357149243354797 -0.08984375 -0.42578125
-0.205357149243354797 -0.08984375 -0.4140625
-0.205357149243354797 -0.0859375 -0.4296875
-0.205357149243354797 -0.0859375 -0.421875
-0.205357149243354797 -0.0859375 -0.41796875
-0.196428567171096802 -0.109375 -0.4296875
-0.196428567171096802 -0.109375 -0.42578125
-0.196428567171096802 -0.109375 -0.421875
-0.196428567171096802 -0.109375 -0.41796875
-0.196428567171096802 -0.109375 -0.4140625
-0.196428567171096802 -0.10546875 -0.43359375
-0.196428567171096802 -0.10546875 -0.4140625
-0.196428567171096802 -0.10546875 -0.41015625
-0.196428567171096802 -0.1015625 -0.43359375
-0.196428567171096802 -0.1015625 -0.4140625
-0.196428567171096802 -0.1015625 -0.41015625
-0.196428567171096802 -0.09765625 -0.43359375
-0.196428567171096802 -0.09765625 -0.4140625
-0.196428567171096802 -0.09375 -0.43359375
-0.196428567171096802 -0.09375 -0.4140625
-0.196428567171096802 -0.08984375 -0.43359375
-0.196428567171096802 -0.08984375 -0.41796875
-0.196428567171096802 -0.0859375 -0.4296875
-0.196428567171096802 -0.0859375 -0.42578125
-0.196428567171096802 -0.0859375 -0.421875
-0.196428567171096802 -0.0859375 -0.41796875
-0.1875 -0.109375 -0.4296875
-0.1875 -0.109375 -0.42578125
-0.1875 -0.109375 -0.421875
-0.1875 -0.10546875 -0.4375
-0.1875 -0.10546875 -0.43359375
-0.1875 -0.10546875 -0.41796875
-0.1875 -0.1015625 -0.4375
-0.1875 -0.1015625 -0.41796875
-0.1875 -0.09765625 -0.4375
-0.1875 -0.09765625 -0.41796875
-0.1875 -0.09375 -0.43359375
-0.1875 -0.09375 -0.4140625
-0.1875 -0.08984375 -0.43359375
-0.1875 -0.08984375 -0.4296875
-0.1875 -0.08984375 -0.42578125
-0.1875 -0.08984375 -0.421875
-0.1875 -0.08984375 -0.41796875
-0.178571432828903198 -0.109375 -0.4296875
-0.178571432828903198 -0.109375 -0.42578125
-0.178571432828903198 -0.109375 -0.421875
-0.178571432828903198 -0.109375 -0.41796875
-0.178571432828903198 -0.10546875 -0.43359375
-0.178571432828903198 -0.10546875 -0.4140625
-0.178571432828903198 -0.1015625 -0.43359375
-0.178571432828903198 -0.1015625 -0.4140625
-0.178571432828903198 -0.09765625 -0.43359375
-0.178571432828903198 -0.09765625 -0.4140625
-0.178571432828903198 -0.09375 -0.43359375
-0.178571432828903198 -0.09375 -0.41796875
-0.178571432828903198 -0.08984375 -0.43359375
-0.178571432828903198 -0.08984375 -0.4296875
-0.178571432828903198 -0.08984375 -0.42578125
-0.178571432828903198 -0.08984375 -0.421875
-0.169642850756645203 -0.11328125 -0.42578125
-0.169642850756645203 -0.11328125 -0.421875
-0.169642850756645203 -0.11328125 -0.41796875
-0.169642850756645203 -0.109375 -0.43359375
-0.169642850756645203 -0.109375 -0.4296875
-0.169642850756645203 -0.109375 -0.4140625
-0.169642850756645203 -0.10546875 -0.43359375
-0.169642850756645203 -0.10546875 -0.4140625
-0.169642850756645203 -0.1015625 -0.43359375
-0.169642850756645203 -0.1015625 -0.4140625
-0.169642850756645203 -0.09765625 -0.4296875
-0.169642850756645203 -0.09765625 -0.4140625
-0.169642850756645203 -0.09375 -0.4296875
-0.169642850756645203 -0.09375 -0.41796875
-0.169642850756645203 -0.08984375 -0.42578125
-0.169642850756645203 -0.08984375 -0.421875
-0.160714283585548401 -0.1171875 -0.421875
-0.160714283585548401 -0.11328125 -0.4296875
-0.160714283585548401 -0.11328125 -0.42578125
-0.160714283585548401 -0.11328125 -0.41796875
-0.160714283585548401 -0.11328125 -0.4140625
-0.160714283585548401 -0.109375 -0.4375
-0.160714283585548401 -0.109375 -0.43359375
-0.160714283585548401 -0.109375 -0.4140625
-0.160714283585548401 -0.10546875 -0.43359375
-0.160714283585548401 -0.10546875 -0.4140625
-0.160714283585548401 -0.1015625 -0.43359375
-0.160714283585548401 -0.1015625 -0.4140625
-0.160714283585548401 -0.09765625 -0.4296875
-0.160714283585548401 -0.09765625 -0.4140625
-0.160714283585548401 -0.09375 -0.4296875
-0.160714283585548401 -0.09375 -0.41796875
-0.160714283585548401 -0.08984375 -0.42578125
-0.160714283585548401 -0.08984375 -0.421875
-0.151785716414451599 -0.1171875 -0.4296875
-0.151785716414451599 -0.1171875 -0.42578125
-0.151785716414451599 -0.1171875 -0.421875
-0.151785716414451599 -0.1171875 -0.41796875
-0.151785716414451599 -0.11328125 -0.4375
-0.151785716414451599 -0.11328125 -0.43359375
-0.151785716414451599 -0.11328125 -0.4140625
-0.151785716414451599 -0.109375 -0.4375
-0.151785716414451599 -0.109375 -0.4140625
-0.151785716414451599 -0.10546875 -0.43359375
-0.151785716414451599 -0.10546875 -0.4140625
-0.151785716414451599 -0.1015625 -0.43359375
-0.151785716414451599 -0.1015625 -0.4140625
-0.151785716414451599 -0.09765625 -0.43359375
-0.151785716414451599 -0.09765625 -0.4140625
-0.151785716414451599 -0.09375 -0.4296875
-0.151785716414451599 -0.09375 -0.42578125
-0.151785716414451599 -0.09375 -0.421875
-0.151785716414451599 -0.09375 -0.41796875
-0.142857149243354797 -0.1171875 -0.4296875
-0.142857149243354797 -0.1171875 -0.42578125
-0.142857149243354797 -0.1171875 -0.421875
-0.142857149243354797 -0.1171875 -0.41796875
-0.142857149243354797 -0.1171875 -0.4140625
-0.142857149243354797 -0.11328125 -0.43359375
-0.142857149243354797 -0.11328125 -0.41015625
-0.142857149243354797 -0.109375 -0.43359375
-0.142857149243354797 -0.109375 -0.41015625
-0.142857149243354797 -0.10546875 -0.43359375
-0.142857149243354797 -0.10546875 -0.4140625
-0.142857149243354797 -0.1015625 -0.43359375
-0.142857149243354797 -0.1015625 -0.4140625
-0.142857149243354797 -0.09765625 -0.43359375
-0.142857149243354797 -0.09765625 -0.4296875
-0.142857149243354797 -0.09765625 -0.41796875
-0.142857149243354797 -0.09375 -0.42578125
-0.142857149243354797 -0.09375 -0.421875
-0.133928567171096802 -0.1171875 -0.42578125
-0.133928567171096802 -0.1171875 -0.421875
-0.133928567171096802 -0.1171875 -0.41796875
-0.133928567171096802 -0.11328125 -0.4296875
-0.133928567171096802 -0.11328125 -0.4140625
-0.133928567171096802 -0.109375 -0.43359375
-0.133928567171096802 -0.109375 -0.4140625
-0.133928567171096802 -0.10546875 -0.43359375
-0.133928567171096802 -0.10546875 -0.4140625
-0.133928567171096802 -0.1015625 -0.43359375
-0.133928567171096802 -0.1015625 -0.41796875
-0.133928567171096802 -0.1015625 -0.4140625
-0.133928567171096802 -0.09765625 -0.4296875
-0.133928567171096802 -0.09765625 -0.42578125
-0.133928567171096802 -0.09765625 -0.421875
-0.125 -0.12109375 -0.421875
-0.125 -0.1171875 -0.42578125
-0.125 -0.1171875 -0.41796875
-0.125 -0.1171875 -0.4140625
-0.125 -0.11328125 -0.43359375
-0.125 -0.11328125 -0.4296875
-0.125 -0.11328125 -0.4140625
-0.125 -0.109375 -0.43359375
-0.125 -0.109375 -0.4140625
-0.125 -0.10546875 -0.43359375
-0.125 -0.10546875 -0.41015625
-0.125 -0.1015625 -0.4296875
-0.125 -0.1015625 -0.4140625
-0.125 -0.09765625 -0.42578125
-0.125 -0.09765625 -0.41796875
-0.125 -0.09375 -0.421875
-0.116071425378322601 -0.12109375 -0.42578125
-0.116071425378322601 -0.1171875 -0.43359375
-0.116071425378322601 -0.1171875 -0.4296875
-0.116071425378322601 -0.1171875 -0.421875
-0.116071425378322601 -0.1171875 -0.41796875
-0.116071425378322601 -0.11328125 -0.43359375
-0.116071425378322601 -0.11328125 -0.4140625
-0.116071425378322601 -0.109375 -0.43359375
-0.116071425378322601 -0.109375 -0.4140625
-0.116071425378322601 -0.10546875 -0.43359375
-0.116071425378322601 -0.10546875 -0.4140625
-0.116071425378322601 -0.1015625 -0.4296875
-0.116071425378322601 -0.1015625 -0.4140625
-0.116071425378322601 -0.09765625 -0.42578125
-0.116071425378322601 -0.09765625 -0.421875
-0.116071425378322601 -0.09765625 -0.41796875
-0.1071428582072258 -0.12109375 -0.4296875
-0.1071428582072258 -0.12109375 -0.42578125
-0.1071428582072258 -0.12109375 -0.421875
-0.1071428582072258 -0.12109375 -0.41796875
-0.1071428582072258 -0.12109375 -0.4140625
-0.1071428582072258 -0.1171875 -0.43359375
-0.1071428582072258 -0.1171875 -0.4140625
-0.1071428582072258 -0.1171875 -0.41015625
-0.1071428582072258 -0.11328125 -0.43359375
-0.1071428582072258 -0.11328125 -0.41015625
-0.1071428582072258 -0.109375 -0.43359375
-0.1071428582072258 -0.109375 -0.4140625
-0.1071428582072258 -0.10546875 -0.43359375
-0.1071428582072258 -0.10546875 -0.4140625
-0.1071428582072258 -0.1015625 -0.4296875
-0.1071428582072258 -0.1015625 -0.41796875
-0.1071428582072258 -0.09765625 -0.42578125
-0.1071428582072258 -0.09765625 -0.421875
-0.0982142835855484009 -0.125 -0.4140625
-0.0982142835855484009 -0.12109375 -0.4296875
-0.0982142835855484009 -0.12109375 -0.42578125
-0.0982142835855484009 -0.12109375 -0.421875
-0.0982142835855484009 -0.12109375 -0.41796875
-0.0982142835855484009 -0.12109375 -0.41015625
-0.0982142835855484009 -0.1171875 -0.43359375
-0.0982142835855484009 -0.1171875 -0.41015625
-0.0982142835855484009 -0.11328125 -0.43359375
-0.0982142835855484009 -0.11328125 -0.40625
-0.0982142835855484009 -0.109375 -0.43359375
-0.0982142835855484009 -0.109375 -0.41015625
-0.0982142835855484009 -0.109375 -0.40625
-0.0982142835855484009 -0.10546875 -0.4296875
-0.0982142835855484009 -0.10546875 -0.41015625
-0.0982142835855484009 -0.1015625 -0.4296875
-0.0982142835855484009 -0.1015625 -0.41796875
-0.0982142835855484009 -0.1015625 -0.4140625
-0.0982142835855484009 -0.09765625 -0.42578125
-0.0982142835855484009 -0.09765625 -0.421875
-0.0892857164144515991 -0.125 -0.421875
-0.0892857164144515991 -0.125 -0.41796875
-0.0892857164144515991 -0.125 -0.4140625
-0.0892857164144515991 -0.12109375 -0.43359375
-0.0892857164144515991 -0.12109375 -0.4296875
-0.0892857164144515991 -0.12109375 -0.42578125
-0.0892857164144515991 -0.12109375 -0.41015625
-0.0892857164144515991 -0.1171875 -0.4296875
-0.0892857164144515991 -0.1171875 -0.41015625
-0.0892857164144515991 -0.11328125 -0.43359375
-0.0892857164144515991 -0.11328125 -0.4296875
-0.0892857164144515991 -0.11328125 -0.41015625
-0.0892857164144515991 -0.109375 -0.43359375
-0.0892857164144515991 -0.109375 -0.4296875
-0.0892857164144515991 -0.109375 -0.41015625
-0.0892857164144515991 -0.10546875 -0.43359375
-0.0892857164144515991 -0.10546875 -0.4296875
-0.0892857164144515991 -0.10546875 -0.4140625
-0.0892857164144515991 -0.1015625 -0.4296875
-0.0892857164144515991 -0.1015625 -0.42578125
-0.0892857164144515991 -0.1015625 -0.421875
-0.0892857164144515991 -0.1015625 -0.41796875
-0.0803571417927742004 -0.12890625 -0.4140625
-0.0803571417927742004 -0.125 -0.42578125
-0.0803571417927742004 -0.125 -0.421875
-0.0803571417927742004 -0.125 -0.41796875
-0.0803571417927742004 -0.125 -0.41015625
-0.0803571417927742004 -0.12109375 -0.4296875
-0.0803571417927742004 -0.12109375 -0.41015625
-0.0803571417927742004 -0.1171875 -0.4296875
-0.0803571417927742004 -0.1171875 -0.41015625
-0.0803571417927742004 -0.11328125 -0.42578125
-0.0803571417927742004 -0.11328125 -0.41015625
-0.0803571417927742004 -0.109375 -0.42578125
-0.0803571417927742004 -0.109375 -0.41015625
-0.0803571417927742004 -0.10546875 -0.42578125
-0.0803571417927742004 -0.10546875 -0.421875
-0.0803571417927742004 -0.10546875 -0.4140625
-0.0803571417927742004 -0.1015625 -0.41796875
-0.0714285746216773987 -0.12890625 -0.41796875
-0.0714285746216773987 -0.12890625 -0.4140625
-0.0714285746216773987 -0.125 -0.42578125
-0.0714285746216773987 -0.125 -0.421875
-0.0714285746216773987 -0.125 -0.41015625
-0.0714285746216773987 -0.12109375 -0.43359375
-0.0714285746216773987 -0.12109375 -0.4296875
-0.0714285746216773987 -0.12109375 -0.41015625
-0.0714285746216773987 -0.1171875 -0.43359375
-0.0714285746216773987 -0.1171875 -0.41015625
-0.0714285746216773987 -0.11328125 -0.4296875
-0.0714285746216773987 -0.11328125 -0.41015625
-0.0714285746216773987 -0.109375 -0.42578125
-0.0714285746216773987 -0.109375 -0.41015625
-0.0714285746216773987 -0.10546875 -0.42578125
-0.0714285746216773987 -0.10546875 -0.421875
-0.0714285746216773987 -0.10546875 -0.41796875
-0.0714285746216773987 -0.10546875 -0.4140625
-0.0625 -0.12890625 -0.42578125
-0.0625 -0.12890625 -0.421875
-0.0625 -0.12890625 -0.41796875
-0.0625 -0.12890625 -0.4140625
-0.0625 -0.12890625 -0.41015625
-0.0625 -0.125 -0.4296875
-0.0625 -0.125 -0.41015625
-0.0625 -0.12109375 -0.4296875
-0.0625 -0.12109375 -0.41015625
-0.0625 -0.1171875 -0.4296875
-0.0625 -0.1171875 -0.41015625
-0.0625 -0.11328125 -0.4296875
-0.0625 -0.11328125 -0.41015625
-0.0625 -0.109375 -0.42578125
-0.0625 -0.109375 -0.4140625
-0.0625 -0.10546875 -0.421875
-0.0625 -0.10546875 -0.41796875
-0.0535714291036128998 -0.1328125 -0.42578125
-0.0535714291036128998 -0.1328125 -0.421875
-0.0535714291036128998 -0.1328125 -0.41796875
-0.0535714291036128998 -0.1328125 -0.4140625
-0.0535714291036128998 -0.12890625 -0.42578125
-0.0535714291036128998 -0.12890625 -0.41015625
-0.0535714291036128998 -0.125 -0.4296875
-0.0535714291036128998 -0.125 -0.40625
-0.0535714291036128998 -0.12109375 -0.4296875
-0.0535714291036128998 -0.12109375 -0.41015625
-0.0535714291036128998 -0.1171875 -0.4296875
-0.0535714291036128998 -0.1171875 -0.41015625
-0.0535714291036128998 -0.11328125 -0.42578125
-0.0535714291036128998 -0.11328125 -0.41015625
-0.0535714291036128998 -0.109375 -0.42578125
-0.0535714291036128998 -0.109375 -0.41796875
-0.0535714291036128998 -0.109375 -0.4140625
-0.0535714291036128998 -0.10546875 -0.421875
-0.0446428582072257996 -0.1328125 -0.42578125
-0.0446428582072257996 -0.1328125 -0.421875
-0.0446428582072257996 -0.1328125 -0.41796875
-0.0446428582072257996 -0.12890625 -0.4296875
-0.0446428582072257996 -0.12890625 -0.4140625
-0.0446428582072257996 -0.12890625 -0.41015625
-0.0446428582072257996 -0.125 -0.4296875
-0.0446428582072257996 -0.125 -0.40625
-0.0446428582072257996 -0.12109375 -0.4296875
-0.0446428582072257996 -0.12109375 -0.40625
-0.0446428582072257996 -0.1171875 -0.4296875
-0.0446428582072257996 -0.1171875 -0.40625
-0.0446428582072257996 -0.11328125 -0.42578125
-0.0446428582072257996 -0.11328125 -0.41015625
-0.0446428582072257996 -0.109375 -0.42578125
-0.0446428582072257996 -0.109375 -0.421875
-0.0446428582072257996 -0.109375 -0.41796875
-0.0446428582072257996 -0.109375 -0.4140625
-0.0357142873108386993 -0.1328125 -0.421875
-0.0357142873108386993 -0.1328125 -0.41796875
-0.0357142873108386993 -0.1328125 -0.4140625
-0.0357142873108386993 -0.1328125 -0.41015625
-0.0357142873108386993 -0.12890625 -0.42578125
-0.0357142873108386993 -0.12890625 -0.40625
-0.0357142873108386993 -0.125 -0.4296875
-0.0357142873108386993 -0.125 -0.40625
-0.0357142873108386993 -0.12109375 -0.4296875
-0.0357142873108386993 -0.12109375 -0.40625
-0.0357142873108386993 -0.1171875 -0.42578125
-0.0357142873108386993 -0.1171875 -0.41015625
-0.0357142873108386993 -0.11328125 -0.421875
-0.0357142873108386993 -0.11328125 -0.4140625
-0.0357142873108386993 -0.11328125 -0.41015625
-0.0357142873108386993 -0.109375 -0.421875
-0.0357142873108386993 -0.109375 -0.41796875
-0.0267857145518064499 -0.1328125 -0.421875
-0.0267857145518064499 -0.1328125 -0.41796875
-0.0267857145518064499 -0.1328125 -0.4140625
-0.0267857145518064499 -0.1328125 -0.41015625
-0.0267857145518064499 -0.12890625 -0.42578125
-0.0267857145518064499 -0.12890625 -0.41015625
-0.0267857145518064499 -0.125 -0.42578125
-0.0267857145518064499 -0.125 -0.41015625
-0.0267857145518064499 -0.12109375 -0.42578125
-0.0267857145518064499 -0.12109375 -0.41015625
-0.0267857145518064499 -0.1171875 -0.42578125
-0.0267857145518064499 -0.1171875 -0.41015625
-0.0267857145518064499 -0.11328125 -0.421875
-0.0267857145518064499 -0.11328125 -0.41796875
-0.0267857145518064499 -0.11328125 -0.41015625
-0.0267857145518064499 -0.109375 -0.4140625
-0.0178571436554193497 -0.13671875 -0.41796875
-0.0178571436554193497 -0.1328125 -0.42578125
-0.0178571436554193497 -0.1328125 -0.421875
-0.0178571436554193497 -0.1328125 -0.4140625
-0.0178571436554193497 -0.1328125 -0.41015625
-0.0178571436554193497 -0.12890625 -0.42578125
-0.0178571436554193497 -0.12890625 -0.40625
-0.0178571436554193497 -0.125 -0.4296875
-0.0178571436554193497 -0.125 -0.40625
-0.0178571436554193497 -0.12109375 -0.42578125
-0.0178571436554193497 -0.12109375 -0.40625
-0.0178571436554193497 -0.1171875 -0.42578125
-0.0178571436554193497 -0.1171875 -0.41015625
-0.0178571436554193497 -0.11328125 -0.421875
-0.0178571436554193497 -0.11328125 -0.41796875
-0.0178571436554193497 -0.11328125 -0.4140625
-0.00892857182770967484 -0.13671875 -0.42578125
-0.00892857182770967484 -0.13671875 -0.421875
-0.00892857182770967484 -0.13671875 -0.41796875
-0.00892857182770967484 -0.13671875 -0.4140625
-0.00892857182770967484 -0.1328125 -0.42578125
-0.00892857182770967484 -0.1328125 -0.4140625
-0.00892857182770967484 -0.1328125 -0.41015625
-0.00892857182770967484 -0.12890625 -0.4296875
-0.00892857182770967484 -0.12890625 -0.4140625
-0.00892857182770967484 -0.12890625 -0.41015625
-0.00892857182770967484 -0.125 -0.4296875
