ply
format ascii 1.0
element vertex 1225
comment vertices
property float x
property float y
property float z
end_header
0.223214283585548401 0.47265625 0.2734375
0.223214283585548401 0.47265625 0.2890625
0.223214283585548401 0.4765625 0.27734375
0.223214283585548401 0.4765625 0.28125
0.223214283585548401 0.4765625 0.28515625
0.223214283585548401 0.4765625 0.2890625
0.232142850756645203 -0.32421875 0.32421875
0.232142850756645203 -0.32421875 0.328125
0.232142850756645203 -0.3203125 0.31640625
0.232142850756645203 -0.3203125 0.3203125
0.232142850756645203 -0.3203125 0.32421875
0.232142850756645203 -0.3203125 0.328125
0.232142850756645203 -0.3203125 0.33203125
0.232142850756645203 -0.31640625 0.31640625
0.232142850756645203 -0.31640625 0.33203125
0.232142850756645203 -0.31640625 0.3359375
0.232142850756645203 -0.31640625 0.33984375
0.232142850756645203 -0.3125 0.3125
0.232142850756645203 -0.3125 0.33984375
0.232142850756645203 -0.30859375 0.3125
0.232142850756645203 -0.30859375 0.34375
0.232142850756645203 -0.3046875 0.3125
0.232142850756645203 -0.3046875 0.33984375
0.232142850756645203 -0.30078125 0.3125
0.232142850756645203 -0.30078125 0.33984375
0.232142850756645203 -0.296875 0.31640625
0.232142850756645203 -0.296875 0.33984375
0.232142850756645203 -0.29296875 0.3203125
0.232142850756645203 -0.29296875 0.3359375
0.232142850756645203 -0.2890625 0.32421875
0.232142850756645203 -0.2890625 0.328125
0.232142850756645203 -0.2890625 0.33203125
0.232142850756645203 0.4453125 0.32421875
0.232142850756645203 0.44921875 0.31640625
0.232142850756645203 0.44921875 0.3203125
0.232142850756645203 0.44921875 0.328125
0.232142850756645203 0.453125 0.30859375
0.232142850756645203 0.453125 0.3125
0.232142850756645203 0.453125 0.31640625
0.232142850756645203 0.453125 0.33203125
0.232142850756645203 0.45703125 0.30859375
0.232142850756645203 0.45703125 0.3125
0.232142850756645203 0.45703125 0.3359375
0.232142850756645203 0.4609375 0.3046875
0.232142850756645203 0.4609375 0.30859375
0.232142850756645203 0.4609375 0.3125
0.232142850756645203 0.4609375 0.328125
0.232142850756645203 0.4609375 0.33203125
0.232142850756645203 0.46484375 0.26953125
0.232142850756645203 0.46484375 0.2734375
0.232142850756645203 0.46484375 0.27734375
0.232142850756645203 0.46484375 0.28125
0.232142850756645203 0.46484375 0.3046875
0.232142850756645203 0.46484375 0.30859375
0.232142850756645203 0.46484375 0.3125
0.232142850756645203 0.46484375 0.31640625
0.232142850756645203 0.46484375 0.3203125
0.232142850756645203 0.46484375 0.32421875
0.232142850756645203 0.46875 0.26953125
0.232142850756645203 0.46875 0.28515625
0.232142850756645203 0.47265625 0.26953125
0.232142850756645203 0.47265625 0.27734375
0.232142850756645203 0.47265625 0.28125
0.232142850756645203 0.47265625 0.28515625
0.232142850756645203 0.4765625 0.2734375
0.241071432828903198 -0.31640625 0.3203125
0.241071432828903198 -0.31640625 0.32421875
0.241071432828903198 -0.31640625 0.328125
0.241071432828903198 -0.3125 0.31640625
0.241071432828903198 -0.3125 0.33203125
0.241071432828903198 -0.3125 0.3359375
0.241071432828903198 -0.3125 0.33984375
0.241071432828903198 -0.30859375 0.3125
0.241071432828903198 -0.30859375 0.34375
0.241071432828903198 -0.3046875 0.3125
0.241071432828903198 -0.3046875 0.34375
0.241071432828903198 -0.3046875 0.34765625
0.241071432828903198 -0.30078125 0.3125
0.241071432828903198 -0.30078125 0.34375
0.241071432828903198 -0.30078125 0.34765625
0.241071432828903198 -0.296875 0.31640625
0.241071432828903198 -0.296875 0.34375
0.241071432828903198 -0.296875 0.34765625
0.241071432828903198 -0.29296875 0.31640625
0.241071432828903198 -0.29296875 0.3203125
0.241071432828903198 -0.29296875 0.33984375
0.241071432828903198 -0.29296875 0.34375
0.241071432828903198 -0.29296875 0.34765625
0.241071432828903198 -0.2890625 0.32421875
0.241071432828903198 -0.2890625 0.3359375
0.241071432828903198 -0.2890625 0.33984375
0.241071432828903198 -0.2890625 0.34375
0.241071432828903198 -0.28515625 0.328125
0.241071432828903198 -0.28515625 0.33203125
0.241071432828903198 -0.28515625 0.3359375
0.241071432828903198 0.44921875 0.3125
0.241071432828903198 0.44921875 0.31640625
0.241071432828903198 0.44921875 0.3203125
0.241071432828903198 0.44921875 0.32421875
0.241071432828903198 0.44921875 0.328125
0.241071432828903198 0.453125 0.2734375
0.241071432828903198 0.453125 0.27734375
0.241071432828903198 0.453125 0.28125
0.241071432828903198 0.453125 0.28515625
0.241071432828903198 0.453125 0.2890625
0.241071432828903198 0.453125 0.29296875
0.241071432828903198 0.453125 0.30078125
0.241071432828903198 0.453125 0.3046875
0.241071432828903198 0.453125 0.30859375
0.241071432828903198 0.453125 0.328125
0.241071432828903198 0.453125 0.33203125
0.241071432828903198 0.45703125 0.265625
0.241071432828903198 0.45703125 0.26953125
0.241071432828903198 0.45703125 0.2734375
0.241071432828903198 0.45703125 0.27734375
0.241071432828903198 0.45703125 0.28125
0.241071432828903198 0.45703125 0.28515625
0.241071432828903198 0.45703125 0.2890625
0.241071432828903198 0.45703125 0.29296875
0.241071432828903198 0.45703125 0.296875
0.241071432828903198 0.45703125 0.30078125
0.241071432828903198 0.45703125 0.3046875
0.241071432828903198 0.45703125 0.328125
0.241071432828903198 0.45703125 0.33203125
0.241071432828903198 0.45703125 0.3359375
0.241071432828903198 0.4609375 0.265625
0.241071432828903198 0.4609375 0.26953125
0.241071432828903198 0.4609375 0.2734375
0.241071432828903198 0.4609375 0.27734375
0.241071432828903198 0.4609375 0.28125
0.241071432828903198 0.4609375 0.28515625
0.241071432828903198 0.4609375 0.2890625
0.241071432828903198 0.4609375 0.29296875
0.241071432828903198 0.4609375 0.296875
0.241071432828903198 0.4609375 0.30078125
0.241071432828903198 0.4609375 0.32421875
0.241071432828903198 0.4609375 0.328125
0.241071432828903198 0.4609375 0.33203125
0.241071432828903198 0.46484375 0.265625
0.241071432828903198 0.46484375 0.28515625
0.241071432828903198 0.46484375 0.2890625
0.241071432828903198 0.46484375 0.29296875
0.241071432828903198 0.46484375 0.296875
0.241071432828903198 0.46484375 0.30078125
0.241071432828903198 0.46484375 0.32421875
0.241071432828903198 0.46484375 0.328125
0.241071432828903198 0.46875 0.265625
0.241071432828903198 0.46875 0.2890625
0.241071432828903198 0.46875 0.29296875
0.241071432828903198 0.46875 0.296875
0.241071432828903198 0.46875 0.30078125
0.241071432828903198 0.46875 0.3046875
0.241071432828903198 0.46875 0.30859375
0.241071432828903198 0.46875 0.3125
0.241071432828903198 0.46875 0.31640625
0.241071432828903198 0.46875 0.3203125
0.241071432828903198 0.46875 0.32421875
0.241071432828903198 0.47265625 0.26953125
0.241071432828903198 0.47265625 0.2890625
0.241071432828903198 0.47265625 0.29296875
0.241071432828903198 0.47265625 0.296875
0.241071432828903198 0.47265625 0.30078125
0.241071432828903198 0.47265625 0.3046875
0.241071432828903198 0.47265625 0.30859375
0.241071432828903198 0.47265625 0.3125
0.241071432828903198 0.4765625 0.2734375
0.241071432828903198 0.4765625 0.27734375
0.241071432828903198 0.4765625 0.28125
0.241071432828903198 0.4765625 0.28515625
0.241071432828903198 0.4765625 0.2890625
0.241071432828903198 0.4765625 0.29296875
0.241071432828903198 0.4765625 0.296875
0.241071432828903198 0.48046875 0.27734375
0.241071432828903198 0.48046875 0.28515625
0.25 -0.3125 0.3203125
0.25 -0.3125 0.32421875
0.25 -0.3125 0.328125
0.25 -0.3125 0.33203125
0.25 -0.3125 0.3359375
0.25 -0.30859375 0.3125
0.25 -0.30859375 0.31640625
0.25 -0.30859375 0.3203125
0.25 -0.30859375 0.33984375
0.25 -0.3046875 0.3125
0.25 -0.3046875 0.31640625
0.25 -0.3046875 0.34375
0.25 -0.30078125 0.3125
0.25 -0.30078125 0.34375
0.25 -0.296875 0.31640625
0.25 -0.296875 0.34375
0.25 -0.29296875 0.31640625
0.25 -0.29296875 0.34765625
0.25 -0.2890625 0.3203125
0.25 -0.2890625 0.34765625
0.25 -0.28515625 0.32421875
0.25 -0.28515625 0.33984375
0.25 -0.28515625 0.34375
0.25 -0.28515625 0.34765625
0.25 -0.28125 0.32421875
0.25 -0.28125 0.328125
0.25 -0.28125 0.33203125
0.25 -0.28125 0.3359375
0.25 -0.28125 0.33984375
0.25 -0.28125 0.34375
0.25 -0.28125 0.34765625
0.25 -0.27734375 0.33203125
0.25 -0.27734375 0.3359375
0.25 -0.27734375 0.33984375
0.25 0.44921875 0.265625
0.25 0.44921875 0.26953125
0.25 0.453125 0.26171875
0.25 0.453125 0.265625
0.25 0.453125 0.26953125
0.25 0.453125 0.2734375
0.25 0.453125 0.27734375
0.25 0.453125 0.28515625
0.25 0.453125 0.2890625
0.25 0.453125 0.29296875
0.25 0.453125 0.296875
0.25 0.453125 0.30078125
0.25 0.453125 0.3046875
0.25 0.453125 0.30859375
0.25 0.453125 0.3125
0.25 0.453125 0.31640625
0.25 0.453125 0.3203125
0.25 0.453125 0.32421875
0.25 0.45703125 0.26171875
0.25 0.45703125 0.28125
0.25 0.45703125 0.3125
0.25 0.45703125 0.31640625
0.25 0.45703125 0.3203125
0.25 0.45703125 0.32421875
0.25 0.4609375 0.26171875
0.25 0.4609375 0.3125
0.25 0.4609375 0.31640625
0.25 0.4609375 0.3203125
0.25 0.46484375 0.26171875
0.25 0.46484375 0.3125
0.25 0.46484375 0.31640625
0.25 0.46484375 0.3203125
0.25 0.46875 0.26171875
0.25 0.46875 0.30859375
0.25 0.46875 0.3125
0.25 0.46875 0.31640625
0.25 0.47265625 0.265625
0.25 0.47265625 0.26953125
0.25 0.47265625 0.2734375
0.25 0.47265625 0.296875
0.25 0.47265625 0.30078125
0.25 0.47265625 0.3046875
0.25 0.4765625 0.27734375
0.25 0.4765625 0.28125
0.25 0.4765625 0.2890625
0.25 0.4765625 0.29296875
0.25 0.48046875 0.28125
0.25 0.48046875 0.28515625
0.258928567171096802 -0.30859375 0.32421875
0.258928567171096802 -0.30859375 0.328125
0.258928567171096802 -0.30859375 0.33203125
0.258928567171096802 -0.30859375 0.3359375
0.258928567171096802 -0.3046875 0.3203125
0.258928567171096802 -0.3046875 0.32421875
0.258928567171096802 -0.3046875 0.328125
0.258928567171096802 -0.3046875 0.33203125
0.258928567171096802 -0.3046875 0.3359375
0.258928567171096802 -0.3046875 0.33984375
0.258928567171096802 -0.30078125 0.3125
0.258928567171096802 -0.30078125 0.31640625
0.258928567171096802 -0.30078125 0.3203125
0.258928567171096802 -0.30078125 0.33984375
0.258928567171096802 -0.296875 0.3125
0.258928567171096802 -0.296875 0.31640625
0.258928567171096802 -0.296875 0.34375
0.258928567171096802 -0.29296875 0.31640625
0.258928567171096802 -0.29296875 0.34765625
0.258928567171096802 -0.2890625 0.3203125
0.258928567171096802 -0.2890625 0.3515625
0.258928567171096802 -0.28515625 0.3203125
0.258928567171096802 -0.28515625 0.3515625
0.258928567171096802 -0.28125 0.32421875
0.258928567171096802 -0.28125 0.3515625
0.258928567171096802 -0.27734375 0.328125
0.258928567171096802 -0.27734375 0.33203125
0.258928567171096802 -0.27734375 0.34375
0.258928567171096802 -0.27734375 0.34765625
0.258928567171096802 -0.27734375 0.3515625
0.258928567171096802 -0.2734375 0.3359375
0.258928567171096802 -0.2734375 0.33984375
0.258928567171096802 -0.2734375 0.34375
0.258928567171096802 -0.2734375 0.34765625
0.258928567171096802 -0.2734375 0.3515625
0.258928567171096802 -0.26953125 0.34375
0.258928567171096802 0.4453125 0.26171875
0.258928567171096802 0.4453125 0.265625
0.258928567171096802 0.4453125 0.26953125
0.258928567171096802 0.44921875 0.26171875
0.258928567171096802 0.44921875 0.2734375
0.258928567171096802 0.44921875 0.27734375
0.258928567171096802 0.44921875 0.28125
0.258928567171096802 0.44921875 0.28515625
0.258928567171096802 0.453125 0.2578125
0.258928567171096802 0.453125 0.265625
0.258928567171096802 0.453125 0.28125
0.258928567171096802 0.453125 0.2890625
0.258928567171096802 0.453125 0.29296875
0.258928567171096802 0.453125 0.296875
0.258928567171096802 0.453125 0.3046875
0.258928567171096802 0.453125 0.30859375
0.258928567171096802 0.45703125 0.25390625
0.258928567171096802 0.45703125 0.2578125
0.258928567171096802 0.45703125 0.26171875
0.258928567171096802 0.45703125 0.30078125
0.258928567171096802 0.45703125 0.3046875
0.258928567171096802 0.45703125 0.30859375
0.258928567171096802 0.4609375 0.25390625
0.258928567171096802 0.4609375 0.2578125
0.258928567171096802 0.4609375 0.30078125
0.258928567171096802 0.4609375 0.3046875
0.258928567171096802 0.4609375 0.30859375
0.258928567171096802 0.46484375 0.26171875
0.258928567171096802 0.46484375 0.296875
0.258928567171096802 0.46484375 0.30078125
0.258928567171096802 0.46484375 0.3046875
0.258928567171096802 0.46484375 0.30859375
0.258928567171096802 0.46875 0.265625
0.258928567171096802 0.46875 0.26953125
0.258928567171096802 0.46875 0.30078125
0.258928567171096802 0.46875 0.3046875
0.258928567171096802 0.47265625 0.2734375
0.258928567171096802 0.47265625 0.27734375
0.258928567171096802 0.47265625 0.28125
0.258928567171096802 0.47265625 0.296875
0.258928567171096802 0.4765625 0.28515625
0.258928567171096802 0.4765625 0.2890625
0.258928567171096802 0.4765625 0.29296875
0.267857134342193604 -0.30078125 0.32421875
0.267857134342193604 -0.30078125 0.328125
0.267857134342193604 -0.30078125 0.33203125
0.267857134342193604 -0.30078125 0.3359375
0.267857134342193604 -0.30078125 0.33984375
0.267857134342193604 -0.296875 0.3203125
0.267857134342193604 -0.296875 0.32421875
0.267857134342193604 -0.296875 0.328125
0.267857134342193604 -0.296875 0.33203125
0.267857134342193604 -0.296875 0.34375
0.267857134342193604 -0.29296875 0.31640625
0.267857134342193604 -0.29296875 0.3203125
0.267857134342193604 -0.29296875 0.32421875
0.267857134342193604 -0.29296875 0.328125
0.267857134342193604 -0.29296875 0.34765625
0.267857134342193604 -0.2890625 0.31640625
0.267857134342193604 -0.2890625 0.3203125
0.267857134342193604 -0.2890625 0.32421875
0.267857134342193604 -0.2890625 0.34765625
0.267857134342193604 -0.28515625 0.3203125
0.267857134342193604 -0.28515625 0.32421875
0.267857134342193604 -0.28515625 0.3515625
0.267857134342193604 -0.28125 0.32421875
0.267857134342193604 -0.28125 0.35546875
0.267857134342193604 -0.27734375 0.328125
0.267857134342193604 -0.27734375 0.3515625
0.267857134342193604 -0.2734375 0.328125
0.267857134342193604 -0.2734375 0.33203125
0.267857134342193604 -0.2734375 0.35546875
0.267857134342193604 -0.26953125 0.33203125
0.267857134342193604 -0.26953125 0.3359375
0.267857134342193604 -0.26953125 0.33984375
0.267857134342193604 -0.26953125 0.34765625
0.267857134342193604 -0.26953125 0.3515625
0.267857134342193604 -0.26953125 0.35546875
0.267857134342193604 -0.26953125 0.359375
0.267857134342193604 -0.265625 0.3359375
0.267857134342193604 -0.265625 0.33984375
0.267857134342193604 -0.265625 0.34375
0.267857134342193604 -0.265625 0.34765625
0.267857134342193604 -0.265625 0.3515625
0.267857134342193604 -0.265625 0.35546875
0.267857134342193604 -0.26171875 0.34765625
0.267857134342193604 0.4375 0.265625
0.267857134342193604 0.4375 0.26953125
0.267857134342193604 0.44140625 0.25
0.267857134342193604 0.44140625 0.25390625
0.267857134342193604 0.44140625 0.2578125
0.267857134342193604 0.44140625 0.26171875
0.267857134342193604 0.44140625 0.265625
0.267857134342193604 0.44140625 0.26953125
0.267857134342193604 0.44140625 0.2734375
0.267857134342193604 0.4453125 0.24609375
0.267857134342193604 0.4453125 0.25
0.267857134342193604 0.4453125 0.25390625
0.267857134342193604 0.4453125 0.2578125
0.267857134342193604 0.4453125 0.2734375
0.267857134342193604 0.4453125 0.27734375
0.267857134342193604 0.44921875 0.24609375
0.267857134342193604 0.44921875 0.25
0.267857134342193604 0.44921875 0.25390625
0.267857134342193604 0.44921875 0.2578125
0.267857134342193604 0.44921875 0.28125
0.267857134342193604 0.453125 0.24609375
0.267857134342193604 0.453125 0.25
0.267857134342193604 0.453125 0.25390625
0.267857134342193604 0.453125 0.26171875
0.267857134342193604 0.453125 0.28515625
0.267857134342193604 0.453125 0.2890625
0.267857134342193604 0.453125 0.29296875
0.267857134342193604 0.45703125 0.25
0.267857134342193604 0.45703125 0.2890625
0.267857134342193604 0.45703125 0.29296875
0.267857134342193604 0.45703125 0.296875
0.267857134342193604 0.4609375 0.25390625
0.267857134342193604 0.4609375 0.2578125
0.267857134342193604 0.4609375 0.28515625
0.267857134342193604 0.4609375 0.2890625
0.267857134342193604 0.4609375 0.29296875
0.267857134342193604 0.4609375 0.296875
0.267857134342193604 0.46484375 0.26171875
0.267857134342193604 0.46484375 0.28515625
0.267857134342193604 0.46484375 0.2890625
0.267857134342193604 0.46484375 0.29296875
0.267857134342193604 0.46875 0.265625
0.267857134342193604 0.46875 0.26953125
0.267857134342193604 0.46875 0.28515625
0.267857134342193604 0.46875 0.2890625
0.267857134342193604 0.46875 0.29296875
0.267857134342193604 0.46875 0.296875
0.267857134342193604 0.47265625 0.2734375
0.267857134342193604 0.47265625 0.27734375
0.267857134342193604 0.47265625 0.28515625
0.267857134342193604 0.47265625 0.2890625
0.267857134342193604 0.47265625 0.29296875
0.267857134342193604 0.4765625 0.28125
0.267857134342193604 0.4765625 0.2890625
0.276785701513290405 -0.296875 0.3359375
0.276785701513290405 -0.296875 0.33984375
0.276785701513290405 -0.29296875 0.33203125
0.276785701513290405 -0.29296875 0.3359375
0.276785701513290405 -0.29296875 0.33984375
0.276785701513290405 -0.29296875 0.34375
0.276785701513290405 -0.2890625 0.328125
0.276785701513290405 -0.2890625 0.33203125
0.276785701513290405 -0.2890625 0.3359375
0.276785701513290405 -0.2890625 0.34765625
0.276785701513290405 -0.28515625 0.328125
0.276785701513290405 -0.28515625 0.3515625
0.276785701513290405 -0.28125 0.328125
0.276785701513290405 -0.28125 0.35546875
0.276785701513290405 -0.27734375 0.328125
0.276785701513290405 -0.27734375 0.35546875
0.276785701513290405 -0.27734375 0.359375
0.276785701513290405 -0.2734375 0.328125
0.276785701513290405 -0.2734375 0.359375
0.276785701513290405 -0.26953125 0.328125
0.276785701513290405 -0.26953125 0.359375
0.276785701513290405 -0.265625 0.33203125
0.276785701513290405 -0.265625 0.359375
0.276785701513290405 -0.26171875 0.3359375
0.276785701513290405 -0.26171875 0.33984375
0.276785701513290405 -0.26171875 0.34375
0.276785701513290405 -0.26171875 0.3515625
0.276785701513290405 -0.26171875 0.35546875
0.276785701513290405 -0.26171875 0.359375
0.276785701513290405 -0.2578125 0.33984375
0.276785701513290405 -0.2578125 0.34375
0.276785701513290405 -0.2578125 0.34765625
0.276785701513290405 -0.2578125 0.3515625
0.276785701513290405 -0.2578125 0.35546875
0.276785701513290405 -0.2578125 0.359375
0.276785701513290405 -0.25390625 0.34375
0.276785701513290405 -0.25390625 0.34765625
0.276785701513290405 -0.25390625 0.3515625
0.276785701513290405 -0.25390625 0.35546875
0.276785701513290405 -0.25 0.3515625
0.276785701513290405 0.43359375 0.25390625
0.276785701513290405 0.43359375 0.2578125
0.276785701513290405 0.4375 0.24609375
0.276785701513290405 0.4375 0.25
0.276785701513290405 0.4375 0.25390625
0.276785701513290405 0.4375 0.2578125
0.276785701513290405 0.4375 0.26171875
0.276785701513290405 0.4375 0.265625
0.276785701513290405 0.4375 0.26953125
0.276785701513290405 0.4375 0.2734375
0.276785701513290405 0.44140625 0.2421875
0.276785701513290405 0.44140625 0.24609375
0.276785701513290405 0.44140625 0.2734375
0.276785701513290405 0.4453125 0.2421875
0.276785701513290405 0.4453125 0.27734375
0.276785701513290405 0.44921875 0.2421875
0.276785701513290405 0.44921875 0.28125
0.276785701513290405 0.44921875 0.28515625
0.276785701513290405 0.453125 0.24609375
0.276785701513290405 0.453125 0.28125
0.276785701513290405 0.453125 0.28515625
0.276785701513290405 0.45703125 0.25
0.276785701513290405 0.45703125 0.28515625
0.276785701513290405 0.4609375 0.25390625
0.276785701513290405 0.4609375 0.28125
0.276785701513290405 0.46484375 0.2578125
0.276785701513290405 0.46484375 0.28125
0.276785701513290405 0.46875 0.26171875
0.276785701513290405 0.46875 0.265625
0.276785701513290405 0.46875 0.27734375
0.276785701513290405 0.46875 0.28125
0.276785701513290405 0.47265625 0.26953125
0.276785701513290405 0.47265625 0.2734375
0.276785701513290405 0.47265625 0.27734375
0.276785701513290405 0.47265625 0.28125
0.285714298486709595 -0.2890625 0.33984375
0.285714298486709595 -0.2890625 0.34375
0.285714298486709595 -0.28515625 0.33203125
0.285714298486709595 -0.28515625 0.3359375
0.285714298486709595 -0.28515625 0.33984375
0.285714298486709595 -0.28515625 0.34375
0.285714298486709595 -0.28515625 0.34765625
0.285714298486709595 -0.28515625 0.3515625
0.285714298486709595 -0.28125 0.328125
0.285714298486709595 -0.28125 0.33203125
0.285714298486709595 -0.28125 0.3359375
0.285714298486709595 -0.28125 0.35546875
0.285714298486709595 -0.27734375 0.328125
0.285714298486709595 -0.27734375 0.33203125
0.285714298486709595 -0.27734375 0.359375
0.285714298486709595 -0.2734375 0.328125
0.285714298486709595 -0.2734375 0.33203125
0.285714298486709595 -0.2734375 0.359375
0.285714298486709595 -0.26953125 0.328125
0.285714298486709595 -0.26953125 0.33203125
0.285714298486709595 -0.26953125 0.359375
0.285714298486709595 -0.265625 0.33203125
0.285714298486709595 -0.265625 0.36328125
0.285714298486709595 -0.26171875 0.3359375
0.285714298486709595 -0.26171875 0.36328125
0.285714298486709595 -0.26171875 0.3671875
0.285714298486709595 -0.2578125 0.3359375
0.285714298486709595 -0.2578125 0.36328125
0.285714298486709595 -0.2578125 0.3671875
0.285714298486709595 -0.25390625 0.33984375
0.285714298486709595 -0.25390625 0.359375
0.285714298486709595 -0.25390625 0.36328125
0.285714298486709595 -0.25390625 0.3671875
0.285714298486709595 -0.25 0.34375
0.285714298486709595 -0.25 0.34765625
0.285714298486709595 -0.25 0.35546875
0.285714298486709595 -0.25 0.359375
0.285714298486709595 -0.25 0.36328125
0.285714298486709595 -0.24609375 0.34765625
0.285714298486709595 -0.24609375 0.3515625
0.285714298486709595 -0.24609375 0.35546875
0.285714298486709595 -0.24609375 0.359375
0.285714298486709595 0.42578125 0.24609375
0.285714298486709595 0.4296875 0.2421875
0.285714298486709595 0.4296875 0.24609375
0.285714298486709595 0.4296875 0.25
0.285714298486709595 0.4296875 0.25390625
0.285714298486709595 0.4296875 0.2578125
0.285714298486709595 0.4296875 0.26171875
0.285714298486709595 0.43359375 0.23828125
0.285714298486709595 0.43359375 0.2421875
0.285714298486709595 0.43359375 0.24609375
0.285714298486709595 0.43359375 0.25
0.285714298486709595 0.43359375 0.26171875
0.285714298486709595 0.4375 0.23828125
0.285714298486709595 0.4375 0.2421875
0.285714298486709595 0.4375 0.265625
0.285714298486709595 0.4375 0.26953125
0.285714298486709595 0.44140625 0.234375
0.285714298486709595 0.44140625 0.23828125
0.285714298486709595 0.44140625 0.265625
0.285714298486709595 0.44140625 0.26953125
0.285714298486709595 0.44140625 0.2734375
0.285714298486709595 0.4453125 0.23828125
0.285714298486709595 0.4453125 0.26953125
0.285714298486709595 0.4453125 0.2734375
0.285714298486709595 0.4453125 0.27734375
0.285714298486709595 0.44921875 0.23828125
0.285714298486709595 0.44921875 0.2734375
0.285714298486709595 0.44921875 0.27734375
0.285714298486709595 0.453125 0.2421875
0.285714298486709595 0.453125 0.2734375
0.285714298486709595 0.453125 0.27734375
0.285714298486709595 0.45703125 0.24609375
0.285714298486709595 0.45703125 0.25
0.285714298486709595 0.45703125 0.2734375
0.285714298486709595 0.45703125 0.27734375
0.285714298486709595 0.45703125 0.28125
0.285714298486709595 0.4609375 0.25390625
0.285714298486709595 0.4609375 0.2578125
0.285714298486709595 0.4609375 0.27734375
0.285714298486709595 0.4609375 0.28125
0.285714298486709595 0.46484375 0.2578125
0.285714298486709595 0.46484375 0.26171875
0.285714298486709595 0.46484375 0.2734375
0.285714298486709595 0.46484375 0.27734375
0.285714298486709595 0.46875 0.265625
0.285714298486709595 0.46875 0.26953125
0.285714298486709595 0.46875 0.2734375
0.294642865657806396 -0.28125 0.33984375
0.294642865657806396 -0.28125 0.34375
0.294642865657806396 -0.28125 0.34765625
0.294642865657806396 -0.28125 0.3515625
0.294642865657806396 -0.27734375 0.3359375
0.294642865657806396 -0.27734375 0.33984375
0.294642865657806396 -0.27734375 0.34375
0.294642865657806396 -0.27734375 0.34765625
0.294642865657806396 -0.27734375 0.3515625
0.294642865657806396 -0.27734375 0.35546875
0.294642865657806396 -0.2734375 0.3359375
0.294642865657806396 -0.2734375 0.33984375
0.294642865657806396 -0.2734375 0.35546875
0.294642865657806396 -0.26953125 0.3359375
0.294642865657806396 -0.26953125 0.33984375
0.294642865657806396 -0.26953125 0.359375
0.294642865657806396 -0.26953125 0.36328125
0.294642865657806396 -0.265625 0.3359375
0.294642865657806396 -0.265625 0.36328125
0.294642865657806396 -0.26171875 0.3359375
0.294642865657806396 -0.26171875 0.3671875
0.294642865657806396 -0.2578125 0.3359375
0.294642865657806396 -0.2578125 0.3671875
0.294642865657806396 -0.25390625 0.33984375
0.294642865657806396 -0.25390625 0.36328125
0.294642865657806396 -0.25 0.34375
0.294642865657806396 -0.25 0.3671875
0.294642865657806396 -0.24609375 0.34765625
0.294642865657806396 -0.24609375 0.36328125
0.294642865657806396 -0.24609375 0.3671875
0.294642865657806396 -0.24609375 0.37109375
0.294642865657806396 -0.2421875 0.34765625
0.294642865657806396 -0.2421875 0.3515625
0.294642865657806396 -0.2421875 0.35546875
0.294642865657806396 -0.2421875 0.359375
0.294642865657806396 -0.2421875 0.36328125
0.294642865657806396 -0.2421875 0.3671875
0.294642865657806396 -0.2421875 0.37109375
0.294642865657806396 -0.23828125 0.3515625
0.294642865657806396 -0.23828125 0.35546875
0.294642865657806396 -0.23828125 0.359375
0.294642865657806396 -0.23828125 0.36328125
0.294642865657806396 -0.23828125 0.3671875
0.294642865657806396 -0.23828125 0.37109375
0.294642865657806396 -0.23828125 0.375
0.294642865657806396 -0.234375 0.3671875
0.294642865657806396 -0.234375 0.37109375
0.294642865657806396 -0.234375 0.375
0.294642865657806396 0.41796875 0.2421875
0.294642865657806396 0.41796875 0.24609375
0.294642865657806396 0.421875 0.23828125
0.294642865657806396 0.421875 0.2421875
0.294642865657806396 0.421875 0.24609375
0.294642865657806396 0.421875 0.25
0.294642865657806396 0.421875 0.25390625
0.294642865657806396 0.42578125 0.23828125
0.294642865657806396 0.42578125 0.2421875
0.294642865657806396 0.42578125 0.25
0.294642865657806396 0.42578125 0.25390625
0.294642865657806396 0.4296875 0.23828125
0.294642865657806396 0.4296875 0.2578125
0.294642865657806396 0.4296875 0.26171875
0.294642865657806396 0.43359375 0.23828125
0.294642865657806396 0.43359375 0.265625
0.294642865657806396 0.4375 0.234375
0.294642865657806396 0.4375 0.265625
0.294642865657806396 0.44140625 0.23828125
0.294642865657806396 0.44140625 0.26171875
0.294642865657806396 0.4453125 0.23828125
0.294642865657806396 0.4453125 0.265625
0.294642865657806396 0.44921875 0.2421875
0.294642865657806396 0.44921875 0.25
0.294642865657806396 0.44921875 0.26171875
0.294642865657806396 0.44921875 0.265625
0.294642865657806396 0.44921875 0.26953125
0.294642865657806396 0.453125 0.24609375
0.294642865657806396 0.453125 0.25
0.294642865657806396 0.453125 0.26171875
0.294642865657806396 0.453125 0.265625
0.294642865657806396 0.453125 0.26953125
0.294642865657806396 0.45703125 0.25390625
0.294642865657806396 0.45703125 0.2578125
0.294642865657806396 0.45703125 0.26171875
0.294642865657806396 0.45703125 0.265625
0.294642865657806396 0.45703125 0.26953125
0.294642865657806396 0.4609375 0.26171875
0.294642865657806396 0.4609375 0.265625
0.294642865657806396 0.4609375 0.26953125
0.294642865657806396 0.4609375 0.2734375
0.294642865657806396 0.46484375 0.265625
0.294642865657806396 0.46484375 0.26953125
0.303571432828903198 -0.2734375 0.34375
0.303571432828903198 -0.2734375 0.34765625
0.303571432828903198 -0.2734375 0.3515625
0.303571432828903198 -0.2734375 0.35546875
0.303571432828903198 -0.26953125 0.34375
0.303571432828903198 -0.26953125 0.34765625
0.303571432828903198 -0.26953125 0.359375
0.303571432828903198 -0.265625 0.33984375
0.303571432828903198 -0.265625 0.34375
0.303571432828903198 -0.265625 0.36328125
0.303571432828903198 -0.26171875 0.33984375
0.303571432828903198 -0.26171875 0.34375
0.303571432828903198 -0.26171875 0.36328125
0.303571432828903198 -0.2578125 0.33984375
0.303571432828903198 -0.2578125 0.34375
0.303571432828903198 -0.2578125 0.3671875
0.303571432828903198 -0.25390625 0.34375
0.303571432828903198 -0.25390625 0.3671875
0.303571432828903198 -0.25390625 0.37109375
0.303571432828903198 -0.25 0.34375
0.303571432828903198 -0.25 0.37109375
0.303571432828903198 -0.25 0.375
0.303571432828903198 -0.24609375 0.34375
0.303571432828903198 -0.24609375 0.375
0.303571432828903198 -0.2421875 0.34765625
0.303571432828903198 -0.2421875 0.375
0.303571432828903198 -0.23828125 0.3515625
0.303571432828903198 -0.23828125 0.375
0.303571432828903198 -0.234375 0.35546875
0.303571432828903198 -0.234375 0.359375
0.303571432828903198 -0.234375 0.36328125
0.303571432828903198 -0.234375 0.375
0.303571432828903198 -0.23046875 0.359375
0.303571432828903198 -0.23046875 0.36328125
0.303571432828903198 -0.23046875 0.3671875
0.303571432828903198 -0.23046875 0.37109375
0.303571432828903198 -0.23046875 0.375
0.303571432828903198 -0.2265625 0.359375
0.303571432828903198 -0.2265625 0.36328125
0.303571432828903198 -0.2265625 0.3671875
0.303571432828903198 -0.2265625 0.37109375
0.303571432828903198 -0.2265625 0.375
0.303571432828903198 -0.22265625 0.36328125
0.303571432828903198 -0.22265625 0.3671875
0.303571432828903198 -0.22265625 0.37109375
0.303571432828903198 -0.22265625 0.375
0.303571432828903198 -0.22265625 0.37890625
0.303571432828903198 0.40234375 0.2265625
0.303571432828903198 0.40234375 0.23046875
0.303571432828903198 0.40625 0.22265625
0.303571432828903198 0.40625 0.2265625
0.303571432828903198 0.40625 0.23046875
0.303571432828903198 0.41015625 0.21875
0.303571432828903198 0.41015625 0.22265625
0.303571432828903198 0.41015625 0.2265625
0.303571432828903198 0.41015625 0.23046875
0.303571432828903198 0.41015625 0.234375
0.303571432828903198 0.4140625 0.21484375
0.303571432828903198 0.4140625 0.21875
0.303571432828903198 0.4140625 0.22265625
0.303571432828903198 0.4140625 0.2265625
0.303571432828903198 0.4140625 0.23046875
0.303571432828903198 0.4140625 0.234375
0.303571432828903198 0.4140625 0.23828125
0.303571432828903198 0.4140625 0.2421875
0.303571432828903198 0.41796875 0.21484375
0.303571432828903198 0.41796875 0.21875
0.303571432828903198 0.41796875 0.22265625
0.303571432828903198 0.41796875 0.2265625
0.303571432828903198 0.41796875 0.23046875
0.303571432828903198 0.41796875 0.234375
0.303571432828903198 0.41796875 0.23828125
0.303571432828903198 0.41796875 0.24609375
0.303571432828903198 0.41796875 0.25
0.303571432828903198 0.421875 0.21875
0.303571432828903198 0.421875 0.22265625
0.303571432828903198 0.421875 0.2265625
0.303571432828903198 0.421875 0.23046875
0.303571432828903198 0.421875 0.234375
0.303571432828903198 0.421875 0.25390625
0.303571432828903198 0.42578125 0.2265625
0.303571432828903198 0.42578125 0.23046875
0.303571432828903198 0.42578125 0.234375
0.303571432828903198 0.42578125 0.2578125
0.303571432828903198 0.4296875 0.23046875
0.303571432828903198 0.4296875 0.234375
0.303571432828903198 0.4296875 0.2578125
0.303571432828903198 0.43359375 0.234375
0.303571432828903198 0.43359375 0.2578125
0.303571432828903198 0.43359375 0.26171875
0.303571432828903198 0.4375 0.234375
0.303571432828903198 0.4375 0.2421875
0.303571432828903198 0.4375 0.25390625
0.303571432828903198 0.4375 0.2578125
0.303571432828903198 0.4375 0.26171875
0.303571432828903198 0.44140625 0.23828125
0.303571432828903198 0.44140625 0.25390625
0.303571432828903198 0.44140625 0.2578125
0.303571432828903198 0.44140625 0.26171875
0.303571432828903198 0.4453125 0.2421875
0.303571432828903198 0.4453125 0.25
0.303571432828903198 0.4453125 0.25390625
0.303571432828903198 0.4453125 0.2578125
0.303571432828903198 0.4453125 0.26171875
0.303571432828903198 0.44921875 0.24609375
0.303571432828903198 0.44921875 0.25390625
0.303571432828903198 0.44921875 0.2578125
0.303571432828903198 0.453125 0.25390625
0.303571432828903198 0.453125 0.2578125
0.3125 -0.26953125 0.3515625
0.3125 -0.26953125 0.35546875
0.3125 -0.26953125 0.359375
0.3125 -0.265625 0.34765625
0.3125 -0.265625 0.3515625
0.3125 -0.265625 0.35546875
0.3125 -0.265625 0.359375
0.3125 -0.26171875 0.34765625
0.3125 -0.26171875 0.3515625
0.3125 -0.26171875 0.35546875
0.3125 -0.26171875 0.359375
0.3125 -0.26171875 0.36328125
0.3125 -0.2578125 0.34765625
0.3125 -0.2578125 0.3515625
0.3125 -0.2578125 0.35546875
0.3125 -0.2578125 0.3671875
0.3125 -0.25390625 0.34765625
0.3125 -0.25390625 0.3515625
0.3125 -0.25390625 0.3671875
0.3125 -0.25 0.34765625
0.3125 -0.25 0.37109375
0.3125 -0.24609375 0.34765625
0.3125 -0.24609375 0.375
0.3125 -0.24609375 0.37890625
0.3125 -0.2421875 0.34765625
0.3125 -0.2421875 0.37890625
0.3125 -0.23828125 0.3515625
0.3125 -0.23828125 0.375
0.3125 -0.234375 0.3515625
0.3125 -0.234375 0.37890625
0.3125 -0.23046875 0.35546875
0.3125 -0.23046875 0.37890625
0.3125 -0.2265625 0.35546875
0.3125 -0.2265625 0.37890625
0.3125 -0.22265625 0.359375
0.3125 -0.22265625 0.3828125
0.3125 -0.21875 0.36328125
0.3125 -0.21875 0.3671875
0.3125 -0.21875 0.37109375
0.3125 -0.21875 0.375
0.3125 -0.21875 0.37890625
0.3125 -0.21875 0.3828125
0.3125 -0.21875 0.38671875
0.3125 -0.21484375 0.3671875
0.3125 -0.21484375 0.37109375
0.3125 -0.21484375 0.375
0.3125 -0.21484375 0.37890625
0.3125 -0.21484375 0.3828125
0.3125 -0.21484375 0.38671875
0.3125 -0.2109375 0.31640625
0.3125 -0.2109375 0.3203125
0.3125 -0.2109375 0.32421875
0.3125 -0.2109375 0.37109375
0.3125 -0.2109375 0.375
0.3125 -0.2109375 0.37890625
0.3125 -0.2109375 0.3828125
0.3125 -0.20703125 0.31640625
0.3125 -0.20703125 0.3203125
0.3125 -0.20703125 0.32421875
0.3125 -0.20703125 0.375
0.3125 -0.20703125 0.37890625
0.3125 -0.20703125 0.3828125
0.3125 -0.203125 0.31640625
0.3125 -0.203125 0.3203125
0.3125 -0.203125 0.32421875
0.3125 -0.203125 0.37890625
0.3125 0.3984375 0.2109375
0.3125 0.3984375 0.21484375
0.3125 0.3984375 0.21875
0.3125 0.3984375 0.22265625
0.3125 0.40234375 0.2109375
0.3125 0.40234375 0.21484375
0.3125 0.40234375 0.21875
0.3125 0.40234375 0.22265625
0.3125 0.40234375 0.2265625
0.3125 0.40234375 0.23046875
0.3125 0.40625 0.2109375
0.3125 0.40625 0.21484375
0.3125 0.40625 0.21875
0.3125 0.40625 0.234375
0.3125 0.41015625 0.2109375
0.3125 0.41015625 0.21484375
0.3125 0.41015625 0.23828125
0.3125 0.4140625 0.2109375
0.3125 0.4140625 0.2421875
0.3125 0.41796875 0.2109375
0.3125 0.41796875 0.24609375
0.3125 0.421875 0.21484375
0.3125 0.421875 0.21875
0.3125 0.421875 0.24609375
0.3125 0.421875 0.25
0.3125 0.42578125 0.22265625
0.3125 0.42578125 0.24609375
0.3125 0.42578125 0.25
0.3125 0.42578125 0.25390625
0.3125 0.4296875 0.21875
0.3125 0.4296875 0.22265625
0.3125 0.4296875 0.2265625
0.3125 0.4296875 0.24609375
0.3125 0.4296875 0.25
0.3125 0.4296875 0.25390625
0.3125 0.43359375 0.23046875
0.3125 0.43359375 0.2421875
0.3125 0.43359375 0.24609375
0.3125 0.43359375 0.25
0.3125 0.43359375 0.25390625
0.3125 0.4375 0.23046875
0.3125 0.4375 0.234375
0.3125 0.4375 0.23828125
0.3125 0.4375 0.24609375
0.3125 0.4375 0.25
0.3125 0.44140625 0.23046875
0.3125 0.44140625 0.2421875
0.3125 0.44140625 0.24609375
0.3125 0.44140625 0.25
0.3125 0.4453125 0.2421875
0.3125 0.4453125 0.24609375
0.3125 0.4453125 0.25
0.321428567171096802 -0.2578125 0.359375
0.321428567171096802 -0.2578125 0.36328125
0.321428567171096802 -0.25390625 0.35546875
0.321428567171096802 -0.25390625 0.359375
0.321428567171096802 -0.25390625 0.36328125
0.321428567171096802 -0.25390625 0.3671875
0.321428567171096802 -0.25 0.3515625
0.321428567171096802 -0.25 0.35546875
0.321428567171096802 -0.25 0.359375
0.321428567171096802 -0.25 0.36328125
0.321428567171096802 -0.25 0.3671875
0.321428567171096802 -0.25 0.37109375
0.321428567171096802 -0.24609375 0.3515625
0.321428567171096802 -0.24609375 0.35546875
0.321428567171096802 -0.24609375 0.37109375
0.321428567171096802 -0.2421875 0.3515625
0.321428567171096802 -0.2421875 0.35546875
0.321428567171096802 -0.2421875 0.375
0.321428567171096802 -0.23828125 0.3515625
0.321428567171096802 -0.23828125 0.35546875
0.321428567171096802 -0.23828125 0.37890625
0.321428567171096802 -0.234375 0.35546875
0.321428567171096802 -0.234375 0.3828125
0.321428567171096802 -0.23046875 0.35546875
0.321428567171096802 -0.23046875 0.3828125
0.321428567171096802 -0.23046875 0.38671875
0.321428567171096802 -0.2265625 0.359375
0.321428567171096802 -0.2265625 0.3828125
0.321428567171096802 -0.22265625 0.359375
0.321428567171096802 -0.22265625 0.3828125
0.321428567171096802 -0.21875 0.359375
0.321428567171096802 -0.21875 0.38671875
0.321428567171096802 -0.21875 0.390625
0.321428567171096802 -0.21484375 0.36328125
0.321428567171096802 -0.21484375 0.38671875
0.321428567171096802 -0.2109375 0.3125
0.321428567171096802 -0.2109375 0.31640625
0.321428567171096802 -0.2109375 0.3203125
0.321428567171096802 -0.2109375 0.3671875
0.321428567171096802 -0.2109375 0.38671875
0.321428567171096802 -0.20703125 0.30859375
0.321428567171096802 -0.20703125 0.3125
0.321428567171096802 -0.20703125 0.31640625
0.321428567171096802 -0.20703125 0.3203125
0.321428567171096802 -0.20703125 0.3671875
0.321428567171096802 -0.20703125 0.37109375
0.321428567171096802 -0.20703125 0.38671875
0.321428567171096802 -0.203125 0.3125
0.321428567171096802 -0.203125 0.31640625
0.321428567171096802 -0.203125 0.3203125
0.321428567171096802 -0.203125 0.37109375
0.321428567171096802 -0.203125 0.375
0.321428567171096802 -0.203125 0.3828125
0.321428567171096802 -0.203125 0.38671875
0.321428567171096802 -0.203125 0.390625
0.321428567171096802 -0.19921875 0.37109375
0.321428567171096802 -0.19921875 0.375
0.321428567171096802 -0.19921875 0.37890625
0.321428567171096802 -0.19921875 0.3828125
0.321428567171096802 -0.19921875 0.38671875
0.321428567171096802 0.38671875 0.19921875
0.321428567171096802 0.38671875 0.203125
0.321428567171096802 0.38671875 0.20703125
0.321428567171096802 0.390625 0.19921875
0.321428567171096802 0.390625 0.203125
0.321428567171096802 0.390625 0.20703125
0.321428567171096802 0.390625 0.2109375
0.321428567171096802 0.39453125 0.19921875
0.321428567171096802 0.39453125 0.203125
0.321428567171096802 0.39453125 0.20703125
0.321428567171096802 0.39453125 0.2109375
0.321428567171096802 0.39453125 0.21484375
0.321428567171096802 0.39453125 0.21875
0.321428567171096802 0.39453125 0.22265625
0.321428567171096802 0.3984375 0.19921875
0.321428567171096802 0.3984375 0.203125
0.321428567171096802 0.3984375 0.20703125
0.321428567171096802 0.3984375 0.2265625
0.321428567171096802 0.3984375 0.23046875
0.321428567171096802 0.40234375 0.203125
0.321428567171096802 0.40234375 0.20703125
0.321428567171096802 0.40234375 0.234375
0.321428567171096802 0.40625 0.203125
0.321428567171096802 0.40625 0.20703125
0.321428567171096802 0.40625 0.234375
0.321428567171096802 0.41015625 0.203125
0.321428567171096802 0.41015625 0.20703125
0.321428567171096802 0.41015625 0.234375
0.321428567171096802 0.41015625 0.23828125
0.321428567171096802 0.4140625 0.203125
0.321428567171096802 0.4140625 0.20703125
0.321428567171096802 0.4140625 0.23828125
0.321428567171096802 0.41796875 0.20703125
0.321428567171096802 0.41796875 0.2421875
0.321428567171096802 0.421875 0.2109375
0.321428567171096802 0.421875 0.21484375
0.321428567171096802 0.421875 0.2421875
0.321428567171096802 0.42578125 0.21875
0.321428567171096802 0.42578125 0.22265625
0.321428567171096802 0.42578125 0.23828125
0.321428567171096802 0.42578125 0.2421875
0.321428567171096802 0.4296875 0.2265625
0.321428567171096802 0.4296875 0.23046875
0.321428567171096802 0.4296875 0.234375
0.321428567171096802 0.4296875 0.23828125
0.321428567171096802 0.4296875 0.2421875
0.321428567171096802 0.43359375 0.23046875
0.321428567171096802 0.43359375 0.234375
0.321428567171096802 0.43359375 0.23828125
0.330357134342193604 -0.24609375 0.359375
0.330357134342193604 -0.24609375 0.36328125
0.330357134342193604 -0.24609375 0.3671875
0.330357134342193604 -0.24609375 0.37109375
0.330357134342193604 -0.2421875 0.359375
0.330357134342193604 -0.2421875 0.36328125
0.330357134342193604 -0.2421875 0.3671875
0.330357134342193604 -0.2421875 0.37109375
0.330357134342193604 -0.2421875 0.375
0.330357134342193604 -0.23828125 0.359375
0.330357134342193604 -0.23828125 0.36328125
0.330357134342193604 -0.23828125 0.3671875
0.330357134342193604 -0.23828125 0.37109375
0.330357134342193604 -0.23828125 0.375
0.330357134342193604 -0.23828125 0.37890625
0.330357134342193604 -0.234375 0.359375
0.330357134342193604 -0.234375 0.36328125
0.330357134342193604 -0.234375 0.3671875
0.330357134342193604 -0.234375 0.375
0.330357134342193604 -0.234375 0.37890625
0.330357134342193604 -0.23046875 0.359375
0.330357134342193604 -0.23046875 0.36328125
0.330357134342193604 -0.23046875 0.3828125
0.330357134342193604 -0.2265625 0.359375
0.330357134342193604 -0.2265625 0.36328125
0.330357134342193604 -0.2265625 0.3828125
0.330357134342193604 -0.22265625 0.36328125
0.330357134342193604 -0.22265625 0.3828125
0.330357134342193604 -0.21875 0.36328125
0.330357134342193604 -0.21875 0.3828125
0.330357134342193604 -0.21484375 0.36328125
0.330357134342193604 -0.21484375 0.38671875
0.330357134342193604 -0.21484375 0.390625
0.330357134342193604 -0.2109375 0.36328125
0.330357134342193604 -0.2109375 0.390625
0.330357134342193604 -0.20703125 0.3671875
0.330357134342193604 -0.20703125 0.390625
0.330357134342193604 -0.203125 0.3125
0.330357134342193604 -0.203125 0.31640625
0.330357134342193604 -0.203125 0.3203125
0.330357134342193604 -0.203125 0.32421875
0.330357134342193604 -0.203125 0.3671875
0.330357134342193604 -0.203125 0.390625
0.330357134342193604 -0.19921875 0.3125
0.330357134342193604 -0.19921875 0.31640625
0.330357134342193604 -0.19921875 0.3203125
0.330357134342193604 -0.19921875 0.32421875
0.330357134342193604 -0.19921875 0.3671875
0.330357134342193604 -0.19921875 0.390625
0.330357134342193604 -0.1953125 0.3125
0.330357134342193604 -0.1953125 0.31640625
0.330357134342193604 -0.1953125 0.3203125
0.330357134342193604 -0.1953125 0.32421875
0.330357134342193604 -0.1953125 0.37109375
0.330357134342193604 -0.1953125 0.375
0.330357134342193604 -0.1953125 0.37890625
0.330357134342193604 -0.1953125 0.3828125
0.330357134342193604 -0.1953125 0.38671875
0.330357134342193604 -0.1953125 0.390625
0.330357134342193604 -0.1953125 0.39453125
0.330357134342193604 -0.19140625 0.37109375
0.330357134342193604 -0.19140625 0.375
0.330357134342193604 -0.19140625 0.37890625
0.330357134342193604 -0.19140625 0.3828125
0.330357134342193604 -0.19140625 0.38671875
0.330357134342193604 -0.19140625 0.390625
0.330357134342193604 -0.1875 0.375
0.330357134342193604 -0.1875 0.37890625
0.330357134342193604 -0.1875 0.3828125
0.330357134342193604 -0.1875 0.38671875
0.330357134342193604 -0.18359375 0.375
0.330357134342193604 -0.18359375 0.37890625
0.330357134342193604 -0.18359375 0.3828125
0.330357134342193604 0.375 0.1953125
0.330357134342193604 0.375 0.19921875
0.330357134342193604 0.375 0.203125
0.330357134342193604 0.37890625 0.19140625
0.330357134342193604 0.37890625 0.1953125
0.330357134342193604 0.37890625 0.19921875
0.330357134342193604 0.37890625 0.203125
0.330357134342193604 0.37890625 0.20703125
0.330357134342193604 0.3828125 0.19140625
0.330357134342193604 0.3828125 0.1953125
0.330357134342193604 0.3828125 0.19921875
0.330357134342193604 0.3828125 0.203125
0.330357134342193604 0.3828125 0.20703125
0.330357134342193604 0.3828125 0.2109375
0.330357134342193604 0.3828125 0.21484375
0.330357134342193604 0.38671875 0.19140625
0.330357134342193604 0.38671875 0.1953125
0.330357134342193604 0.38671875 0.2109375
0.330357134342193604 0.38671875 0.21484375
0.330357134342193604 0.390625 0.19140625
0.330357134342193604 0.390625 0.1953125
0.330357134342193604 0.390625 0.21484375
0.330357134342193604 0.390625 0.21875
0.330357134342193604 0.390625 0.22265625
0.330357134342193604 0.39453125 0.19140625
0.330357134342193604 0.39453125 0.1953125
0.330357134342193604 0.39453125 0.22265625
0.330357134342193604 0.3984375 0.19140625
0.330357134342193604 0.3984375 0.1953125
0.330357134342193604 0.3984375 0.2265625
0.330357134342193604 0.40234375 0.19140625
0.330357134342193604 0.40234375 0.1953125
0.330357134342193604 0.40234375 0.19921875
0.330357134342193604 0.40234375 0.23046875
0.330357134342193604 0.40625 0.19140625
0.330357134342193604 0.40625 0.1953125
0.330357134342193604 0.40625 0.19921875
0.330357134342193604 0.40625 0.23046875
0.330357134342193604 0.41015625 0.19921875
0.330357134342193604 0.41015625 0.23046875
0.330357134342193604 0.4140625 0.203125
0.330357134342193604 0.4140625 0.234375
0.330357134342193604 0.41796875 0.20703125
0.330357134342193604 0.41796875 0.234375
0.330357134342193604 0.41796875 0.23828125
0.330357134342193604 0.421875 0.2109375
0.330357134342193604 0.421875 0.21484375
0.330357134342193604 0.421875 0.21875
0.330357134342193604 0.421875 0.234375
0.330357134342193604 0.421875 0.23828125
0.330357134342193604 0.42578125 0.2109375
0.330357134342193604 0.42578125 0.21484375
0.330357134342193604 0.42578125 0.21875
0.330357134342193604 0.42578125 0.22265625
0.330357134342193604 0.42578125 0.2265625
0.330357134342193604 0.42578125 0.23046875
0.330357134342193604 0.42578125 0.234375
0.339285701513290405 -0.234375 0.37109375
0.339285701513290405 -0.23046875 0.3671875
0.339285701513290405 -0.23046875 0.37109375
0.339285701513290405 -0.23046875 0.375
0.339285701513290405 -0.23046875 0.37890625
0.339285701513290405 -0.2265625 0.3671875
0.339285701513290405 -0.2265625 0.37109375
0.339285701513290405 -0.2265625 0.375
0.339285701513290405 -0.2265625 0.37890625
0.339285701513290405 -0.2265625 0.3828125
0.339285701513290405 -0.22265625 0.3671875
0.339285701513290405 -0.22265625 0.37109375
0.339285701513290405 -0.22265625 0.375
0.339285701513290405 -0.22265625 0.37890625
0.339285701513290405 -0.22265625 0.3828125
0.339285701513290405 -0.22265625 0.38671875
0.339285701513290405 -0.21875 0.36328125
0.339285701513290405 -0.21875 0.3671875
0.339285701513290405 -0.21875 0.3828125
0.339285701513290405 -0.21875 0.38671875
0.339285701513290405 -0.21484375 0.36328125
0.339285701513290405 -0.21484375 0.3671875
0.339285701513290405 -0.21484375 0.38671875
0.339285701513290405 -0.2109375 0.3671875
0.339285701513290405 -0.2109375 0.390625
0.339285701513290405 -0.20703125 0.37109375
0.339285701513290405 -0.20703125 0.390625
0.339285701513290405 -0.203125 0.37109375
0.339285701513290405 -0.203125 0.390625
0.339285701513290405 -0.19921875 0.3671875
0.339285701513290405 -0.19921875 0.390625
0.339285701513290405 -0.1953125 0.31640625
0.339285701513290405 -0.1953125 0.3203125
0.339285701513290405 -0.1953125 0.3671875
0.339285701513290405 -0.1953125 0.39453125
0.339285701513290405 -0.19140625 0.31640625
0.339285701513290405 -0.19140625 0.3203125
0.339285701513290405 -0.19140625 0.37109375
0.339285701513290405 -0.19140625 0.39453125
0.339285701513290405 -0.1875 0.31640625
0.339285701513290405 -0.1875 0.3203125
0.339285701513290405 -0.1875 0.37109375
0.339285701513290405 -0.1875 0.390625
0.339285701513290405 -0.18359375 0.37109375
0.339285701513290405 -0.18359375 0.38671875
0.339285701513290405 -0.18359375 0.390625
0.339285701513290405 -0.1796875 0.37109375
0.339285701513290405 -0.1796875 0.375
0.339285701513290405 -0.1796875 0.37890625
0.339285701513290405 -0.1796875 0.3828125
0.339285701513290405 -0.1796875 0.38671875
0.339285701513290405 -0.1796875 0.390625
0.339285701513290405 -0.1796875 0.39453125
0.339285701513290405 -0.17578125 0.37109375
0.339285701513290405 -0.17578125 0.375
0.339285701513290405 -0.17578125 0.37890625
0.339285701513290405 -0.17578125 0.3828125
0.339285701513290405 -0.17578125 0.38671875
0.339285701513290405 -0.17578125 0.390625
0.339285701513290405 -0.171875 0.37109375
0.339285701513290405 -0.171875 0.375
0.339285701513290405 -0.171875 0.37890625
0.339285701513290405 -0.171875 0.3828125
0.339285701513290405 -0.171875 0.38671875
0.339285701513290405 -0.16796875 0.375
0.339285701513290405 -0.16796875 0.37890625
0.339285701513290405 -0.16796875 0.3828125
0.339285701513290405 -0.1640625 0.375
0.339285701513290405 0.36328125 0.18359375
0.339285701513290405 0.36328125 0.1875
0.339285701513290405 0.3671875 0.1796875
0.339285701513290405 0.3671875 0.18359375
