ply
format ascii 1.0
element vertex 1153
comment vertices
property float x
property float y
property float z
end_header
-0.169642850756645203 0.06640625 -0.078125
-0.169642850756645203 0.0703125 -0.0859375
-0.169642850756645203 0.0703125 -0.08203125
-0.169642850756645203 0.0703125 -0.078125
-0.169642850756645203 0.07421875 -0.0859375
-0.169642850756645203 0.07421875 -0.08203125
-0.169642850756645203 0.07421875 -0.078125
-0.169642850756645203 0.08203125 -0.0859375
-0.169642850756645203 0.08203125 -0.08203125
-0.169642850756645203 0.0859375 -0.0859375
-0.169642850756645203 0.0859375 -0.08203125
-0.169642850756645203 0.0859375 -0.078125
-0.169642850756645203 0.0859375 -0.07421875
-0.169642850756645203 0.08984375 -0.0859375
-0.169642850756645203 0.08984375 -0.0703125
-0.169642850756645203 0.08984375 -0.06640625
-0.169642850756645203 0.09375 -0.0859375
-0.169642850756645203 0.09375 -0.0625
-0.169642850756645203 0.09765625 -0.0859375
-0.169642850756645203 0.09765625 -0.0625
-0.169642850756645203 0.1015625 -0.08203125
-0.169642850756645203 0.1015625 -0.0625
-0.169642850756645203 0.1015625 -0.05859375
-0.169642850756645203 0.10546875 -0.078125
-0.169642850756645203 0.10546875 -0.07421875
-0.169642850756645203 0.10546875 -0.0703125
-0.169642850756645203 0.10546875 -0.06640625
-0.169642850756645203 0.10546875 -0.0625
-0.169642850756645203 0.10546875 -0.05859375
-0.169642850756645203 0.109375 -0.0703125
-0.169642850756645203 0.109375 -0.06640625
-0.169642850756645203 0.17578125 0.0703125
-0.169642850756645203 0.17578125 0.07421875
-0.169642850756645203 0.17578125 0.078125
-0.169642850756645203 0.17578125 0.08203125
-0.169642850756645203 0.1796875 0.06640625
-0.169642850756645203 0.1796875 0.0703125
-0.169642850756645203 0.1796875 0.07421875
-0.169642850756645203 0.1796875 0.078125
-0.169642850756645203 0.1796875 0.08203125
-0.169642850756645203 0.18359375 0.06640625
-0.169642850756645203 0.18359375 0.0703125
-0.169642850756645203 0.18359375 0.07421875
-0.169642850756645203 0.18359375 0.078125
-0.169642850756645203 0.18359375 0.08203125
-0.169642850756645203 0.2265625 0.1640625
-0.169642850756645203 0.23046875 0.15625
-0.169642850756645203 0.23046875 0.16015625
-0.169642850756645203 0.23046875 0.1640625
-0.169642850756645203 0.23046875 0.16796875
-0.169642850756645203 0.23046875 0.171875
-0.169642850756645203 0.23046875 0.17578125
-0.169642850756645203 0.234375 0.15625
-0.169642850756645203 0.234375 0.16015625
-0.169642850756645203 0.234375 0.1640625
-0.169642850756645203 0.234375 0.16796875
-0.169642850756645203 0.234375 0.171875
-0.169642850756645203 0.234375 0.17578125
-0.169642850756645203 0.23828125 0.15234375
-0.169642850756645203 0.23828125 0.15625
-0.169642850756645203 0.23828125 0.16015625
-0.169642850756645203 0.23828125 0.1640625
-0.169642850756645203 0.23828125 0.16796875
-0.160714283585548401 -0.1875 -0.34765625
-0.160714283585548401 -0.1875 -0.34375
-0.160714283585548401 -0.1875 -0.33984375
-0.160714283585548401 -0.1875 -0.3359375
-0.160714283585548401 -0.18359375 -0.3515625
-0.160714283585548401 -0.18359375 -0.34765625
-0.160714283585548401 -0.18359375 -0.34375
-0.160714283585548401 -0.18359375 -0.33984375
-0.160714283585548401 -0.18359375 -0.3359375
-0.160714283585548401 -0.18359375 -0.33203125
-0.160714283585548401 -0.1796875 -0.3515625
-0.160714283585548401 -0.1796875 -0.34765625
-0.160714283585548401 -0.1796875 -0.34375
-0.160714283585548401 -0.1796875 -0.33984375
-0.160714283585548401 -0.1796875 -0.3359375
-0.160714283585548401 -0.1796875 -0.33203125
-0.160714283585548401 -0.1796875 -0.328125
-0.160714283585548401 -0.17578125 -0.3515625
-0.160714283585548401 -0.17578125 -0.34765625
-0.160714283585548401 -0.17578125 -0.32421875
-0.160714283585548401 -0.171875 -0.34765625
-0.160714283585548401 -0.171875 -0.3203125
-0.160714283585548401 -0.16796875 -0.34765625
-0.160714283585548401 -0.16796875 -0.3203125
-0.160714283585548401 -0.1640625 -0.34765625
-0.160714283585548401 -0.1640625 -0.31640625
-0.160714283585548401 -0.16015625 -0.34375
-0.160714283585548401 -0.16015625 -0.3125
-0.160714283585548401 -0.15625 -0.33984375
-0.160714283585548401 -0.15625 -0.3125
-0.160714283585548401 -0.15234375 -0.33984375
-0.160714283585548401 -0.15234375 -0.3125
-0.160714283585548401 -0.1484375 -0.3359375
-0.160714283585548401 -0.1484375 -0.33203125
-0.160714283585548401 -0.1484375 -0.30859375
-0.160714283585548401 -0.14453125 -0.33203125
-0.160714283585548401 -0.14453125 -0.30859375
-0.160714283585548401 -0.140625 -0.33203125
-0.160714283585548401 -0.140625 -0.328125
-0.160714283585548401 -0.140625 -0.32421875
-0.160714283585548401 -0.140625 -0.30859375
-0.160714283585548401 -0.140625 -0.3046875
-0.160714283585548401 -0.13671875 -0.328125
-0.160714283585548401 -0.13671875 -0.32421875
-0.160714283585548401 -0.13671875 -0.3203125
-0.160714283585548401 -0.13671875 -0.31640625
-0.160714283585548401 -0.13671875 -0.3125
-0.160714283585548401 -0.13671875 -0.30859375
-0.160714283585548401 -0.13671875 -0.3046875
-0.160714283585548401 -0.1328125 -0.32421875
-0.160714283585548401 -0.1328125 -0.3203125
-0.160714283585548401 -0.1328125 -0.31640625
-0.160714283585548401 -0.1328125 -0.3125
-0.160714283585548401 -0.1328125 -0.30859375
-0.160714283585548401 -0.1328125 -0.3046875
-0.160714283585548401 -0.12890625 -0.31640625
-0.160714283585548401 -0.12890625 -0.3125
-0.160714283585548401 -0.12890625 -0.30859375
-0.160714283585548401 -0.12890625 -0.3046875
-0.160714283585548401 -0.12890625 -0.30078125
-0.160714283585548401 -0.125 -0.31640625
-0.160714283585548401 -0.125 -0.3125
-0.160714283585548401 -0.125 -0.30859375
-0.160714283585548401 -0.125 -0.3046875
-0.160714283585548401 -0.125 -0.30078125
-0.160714283585548401 -0.12109375 -0.3125
-0.160714283585548401 -0.12109375 -0.30859375
-0.160714283585548401 -0.12109375 -0.3046875
-0.160714283585548401 -0.12109375 -0.30078125
-0.160714283585548401 -0.12109375 -0.296875
-0.160714283585548401 -0.1171875 -0.30078125
-0.160714283585548401 -0.1171875 -0.296875
-0.160714283585548401 0.06640625 -0.078125
-0.160714283585548401 0.0703125 -0.078125
-0.160714283585548401 0.08984375 -0.08203125
-0.160714283585548401 0.08984375 -0.078125
-0.160714283585548401 0.08984375 -0.07421875
-0.160714283585548401 0.08984375 -0.0703125
-0.160714283585548401 0.08984375 -0.06640625
-0.160714283585548401 0.09375 -0.08203125
-0.160714283585548401 0.09375 -0.0625
-0.160714283585548401 0.09765625 -0.08203125
-0.160714283585548401 0.09765625 -0.05859375
-0.160714283585548401 0.1015625 -0.08203125
-0.160714283585548401 0.1015625 -0.05859375
-0.160714283585548401 0.10546875 -0.078125
-0.160714283585548401 0.10546875 -0.0546875
-0.160714283585548401 0.109375 -0.07421875
-0.160714283585548401 0.109375 -0.0625
-0.160714283585548401 0.109375 -0.05859375
-0.160714283585548401 0.109375 -0.0546875
-0.160714283585548401 0.11328125 -0.0703125
-0.160714283585548401 0.11328125 -0.06640625
-0.160714283585548401 0.11328125 -0.0625
-0.160714283585548401 0.11328125 -0.05859375
-0.160714283585548401 0.11328125 -0.0546875
-0.160714283585548401 0.1796875 0.0625
-0.160714283585548401 0.1796875 0.06640625
-0.160714283585548401 0.1796875 0.0703125
-0.160714283585548401 0.1796875 0.07421875
-0.160714283585548401 0.18359375 0.0625
-0.160714283585548401 0.18359375 0.06640625
-0.160714283585548401 0.18359375 0.0703125
-0.160714283585548401 0.18359375 0.07421875
-0.160714283585548401 0.23046875 0.15625
-0.160714283585548401 0.234375 0.14453125
-0.160714283585548401 0.234375 0.1484375
-0.160714283585548401 0.234375 0.15234375
-0.160714283585548401 0.234375 0.15625
-0.160714283585548401 0.234375 0.16015625
-0.160714283585548401 0.23828125 0.13671875
-0.160714283585548401 0.23828125 0.140625
-0.160714283585548401 0.23828125 0.14453125
-0.160714283585548401 0.23828125 0.1484375
-0.160714283585548401 0.23828125 0.15234375
-0.160714283585548401 0.23828125 0.15625
-0.160714283585548401 0.23828125 0.16015625
-0.160714283585548401 0.23828125 0.1640625
-0.160714283585548401 0.2421875 0.140625
-0.160714283585548401 0.2421875 0.14453125
-0.160714283585548401 0.2421875 0.1484375
-0.160714283585548401 0.2421875 0.15234375
-0.160714283585548401 0.2421875 0.15625
-0.160714283585548401 0.2421875 0.16015625
-0.151785716414451599 -0.1953125 -0.3515625
-0.151785716414451599 -0.1953125 -0.34765625
-0.151785716414451599 -0.1953125 -0.34375
-0.151785716414451599 -0.19140625 -0.3515625
-0.151785716414451599 -0.19140625 -0.34765625
-0.151785716414451599 -0.19140625 -0.34375
-0.151785716414451599 -0.19140625 -0.33984375
-0.151785716414451599 -0.19140625 -0.3359375
-0.151785716414451599 -0.19140625 -0.33203125
-0.151785716414451599 -0.1875 -0.3515625
-0.151785716414451599 -0.1875 -0.33203125
-0.151785716414451599 -0.18359375 -0.3515625
-0.151785716414451599 -0.18359375 -0.328125
-0.151785716414451599 -0.1796875 -0.3515625
-0.151785716414451599 -0.1796875 -0.32421875
-0.151785716414451599 -0.17578125 -0.3515625
-0.151785716414451599 -0.17578125 -0.32421875
-0.151785716414451599 -0.171875 -0.3515625
-0.151785716414451599 -0.171875 -0.3203125
-0.151785716414451599 -0.16796875 -0.34765625
-0.151785716414451599 -0.16796875 -0.3203125
-0.151785716414451599 -0.1640625 -0.34765625
-0.151785716414451599 -0.1640625 -0.3203125
-0.151785716414451599 -0.16015625 -0.34375
-0.151785716414451599 -0.16015625 -0.31640625
-0.151785716414451599 -0.15625 -0.33984375
-0.151785716414451599 -0.15625 -0.3359375
-0.151785716414451599 -0.15625 -0.31640625
-0.151785716414451599 -0.15234375 -0.3359375
-0.151785716414451599 -0.15234375 -0.33203125
-0.151785716414451599 -0.15234375 -0.328125
-0.151785716414451599 -0.15234375 -0.32421875
-0.151785716414451599 -0.15234375 -0.3203125
-0.151785716414451599 -0.15234375 -0.31640625
-0.151785716414451599 -0.1484375 -0.328125
-0.151785716414451599 -0.1484375 -0.32421875
-0.151785716414451599 -0.1484375 -0.3203125
-0.151785716414451599 -0.1484375 -0.31640625
-0.151785716414451599 -0.1484375 -0.3125
-0.151785716414451599 -0.14453125 -0.328125
-0.151785716414451599 -0.14453125 -0.32421875
-0.151785716414451599 -0.14453125 -0.3203125
-0.151785716414451599 -0.14453125 -0.31640625
-0.151785716414451599 -0.14453125 -0.3125
-0.151785716414451599 -0.140625 -0.3203125
-0.151785716414451599 -0.140625 -0.31640625
-0.151785716414451599 -0.140625 -0.3125
-0.151785716414451599 0.09375 -0.078125
-0.151785716414451599 0.09375 -0.07421875
-0.151785716414451599 0.09375 -0.0703125
-0.151785716414451599 0.09375 -0.06640625
-0.151785716414451599 0.09765625 -0.078125
-0.151785716414451599 0.09765625 -0.0625
-0.151785716414451599 0.09765625 -0.05859375
-0.151785716414451599 0.1015625 -0.078125
-0.151785716414451599 0.1015625 -0.0546875
-0.151785716414451599 0.10546875 -0.078125
-0.151785716414451599 0.10546875 -0.05078125
-0.151785716414451599 0.109375 -0.07421875
-0.151785716414451599 0.109375 -0.05078125
-0.151785716414451599 0.11328125 -0.0703125
-0.151785716414451599 0.11328125 -0.05078125
-0.151785716414451599 0.1171875 -0.06640625
-0.151785716414451599 0.1171875 -0.0625
-0.151785716414451599 0.1171875 -0.05859375
-0.151785716414451599 0.1171875 -0.0546875
-0.151785716414451599 0.1171875 -0.05078125
-0.151785716414451599 0.12109375 -0.0625
-0.151785716414451599 0.12109375 -0.05859375
-0.151785716414451599 0.17578125 0.0546875
-0.151785716414451599 0.17578125 0.05859375
-0.151785716414451599 0.17578125 0.0625
-0.151785716414451599 0.1796875 0.05078125
-0.151785716414451599 0.1796875 0.0546875
-0.151785716414451599 0.1796875 0.05859375
-0.151785716414451599 0.1796875 0.0625
-0.151785716414451599 0.1796875 0.06640625
-0.151785716414451599 0.18359375 0.05078125
-0.151785716414451599 0.18359375 0.0546875
-0.151785716414451599 0.18359375 0.05859375
-0.151785716414451599 0.18359375 0.0625
-0.151785716414451599 0.18359375 0.06640625
-0.151785716414451599 0.234375 0.140625
-0.151785716414451599 0.234375 0.14453125
-0.151785716414451599 0.23828125 0.12109375
-0.151785716414451599 0.23828125 0.125
-0.151785716414451599 0.23828125 0.12890625
-0.151785716414451599 0.23828125 0.1328125
-0.151785716414451599 0.23828125 0.13671875
-0.151785716414451599 0.23828125 0.140625
-0.151785716414451599 0.23828125 0.14453125
-0.151785716414451599 0.2421875 0.12109375
-0.151785716414451599 0.2421875 0.125
-0.151785716414451599 0.2421875 0.12890625
-0.151785716414451599 0.2421875 0.1328125
-0.151785716414451599 0.2421875 0.13671875
-0.151785716414451599 0.2421875 0.140625
-0.151785716414451599 0.2421875 0.14453125
-0.151785716414451599 0.24609375 0.125
-0.151785716414451599 0.24609375 0.12890625
-0.151785716414451599 0.24609375 0.1328125
-0.151785716414451599 0.24609375 0.13671875
-0.142857149243354797 -0.203125 -0.3515625
-0.142857149243354797 -0.203125 -0.34765625
-0.142857149243354797 -0.203125 -0.34375
-0.142857149243354797 -0.203125 -0.33984375
-0.142857149243354797 -0.19921875 -0.35546875
-0.142857149243354797 -0.19921875 -0.3515625
-0.142857149243354797 -0.19921875 -0.34765625
-0.142857149243354797 -0.19921875 -0.34375
-0.142857149243354797 -0.19921875 -0.33984375
-0.142857149243354797 -0.19921875 -0.3359375
-0.142857149243354797 -0.19921875 -0.33203125
-0.142857149243354797 -0.1953125 -0.35546875
-0.142857149243354797 -0.1953125 -0.33984375
-0.142857149243354797 -0.1953125 -0.3359375
-0.142857149243354797 -0.1953125 -0.33203125
-0.142857149243354797 -0.19140625 -0.35546875
-0.142857149243354797 -0.19140625 -0.33203125
-0.142857149243354797 -0.1875 -0.35546875
-0.142857149243354797 -0.1875 -0.328125
-0.142857149243354797 -0.18359375 -0.35546875
-0.142857149243354797 -0.18359375 -0.328125
-0.142857149243354797 -0.1796875 -0.3515625
-0.142857149243354797 -0.1796875 -0.32421875
-0.142857149243354797 -0.17578125 -0.3515625
-0.142857149243354797 -0.17578125 -0.32421875
-0.142857149243354797 -0.171875 -0.3515625
-0.142857149243354797 -0.171875 -0.32421875
-0.142857149243354797 -0.171875 -0.3203125
-0.142857149243354797 -0.16796875 -0.34765625
-0.142857149243354797 -0.16796875 -0.34375
-0.142857149243354797 -0.16796875 -0.33984375
-0.142857149243354797 -0.16796875 -0.32421875
-0.142857149243354797 -0.16796875 -0.3203125
-0.142857149243354797 -0.1640625 -0.34375
-0.142857149243354797 -0.1640625 -0.33984375
-0.142857149243354797 -0.1640625 -0.3359375
-0.142857149243354797 -0.1640625 -0.33203125
-0.142857149243354797 -0.1640625 -0.328125
-0.142857149243354797 -0.1640625 -0.32421875
-0.142857149243354797 -0.1640625 -0.3203125
-0.142857149243354797 -0.16015625 -0.33984375
-0.142857149243354797 -0.16015625 -0.3359375
-0.142857149243354797 -0.16015625 -0.33203125
-0.142857149243354797 -0.16015625 -0.328125
-0.142857149243354797 -0.16015625 -0.32421875
-0.142857149243354797 -0.16015625 -0.3203125
-0.142857149243354797 -0.15625 -0.33203125
-0.142857149243354797 -0.15625 -0.328125
-0.142857149243354797 -0.15625 -0.32421875
-0.142857149243354797 -0.15625 -0.3203125
-0.142857149243354797 0.09765625 -0.07421875
-0.142857149243354797 0.09765625 -0.0703125
-0.142857149243354797 0.09765625 -0.06640625
-0.142857149243354797 0.09765625 -0.0625
-0.142857149243354797 0.1015625 -0.07421875
-0.142857149243354797 0.1015625 -0.0703125
-0.142857149243354797 0.1015625 -0.05859375
-0.142857149243354797 0.1015625 -0.0546875
-0.142857149243354797 0.10546875 -0.07421875
-0.142857149243354797 0.10546875 -0.05078125
-0.142857149243354797 0.109375 -0.0703125
-0.142857149243354797 0.109375 -0.05078125
-0.142857149243354797 0.11328125 -0.0703125
-0.142857149243354797 0.11328125 -0.046875
-0.142857149243354797 0.1171875 -0.06640625
-0.142857149243354797 0.1171875 -0.046875
-0.142857149243354797 0.1171875 -0.04296875
-0.142857149243354797 0.12109375 -0.0625
-0.142857149243354797 0.12109375 -0.0546875
-0.142857149243354797 0.12109375 -0.05078125
-0.142857149243354797 0.12109375 -0.046875
-0.142857149243354797 0.12109375 -0.04296875
-0.142857149243354797 0.125 -0.05859375
-0.142857149243354797 0.125 -0.0546875
-0.142857149243354797 0.125 -0.05078125
-0.142857149243354797 0.125 -0.046875
-0.142857149243354797 0.171875 0.04296875
-0.142857149243354797 0.171875 0.046875
-0.142857149243354797 0.17578125 0.04296875
-0.142857149243354797 0.17578125 0.046875
-0.142857149243354797 0.17578125 0.05078125
-0.142857149243354797 0.17578125 0.0546875
-0.142857149243354797 0.17578125 0.05859375
-0.142857149243354797 0.1796875 0.04296875
-0.142857149243354797 0.1796875 0.046875
-0.142857149243354797 0.1796875 0.0546875
-0.142857149243354797 0.1796875 0.05859375
-0.142857149243354797 0.18359375 0.046875
-0.142857149243354797 0.18359375 0.05078125
-0.142857149243354797 0.18359375 0.0546875
-0.142857149243354797 0.18359375 0.05859375
-0.142857149243354797 0.23828125 0.11328125
-0.142857149243354797 0.23828125 0.1171875
-0.142857149243354797 0.23828125 0.12109375
-0.142857149243354797 0.23828125 0.125
-0.142857149243354797 0.23828125 0.12890625
-0.142857149243354797 0.23828125 0.1328125
-0.142857149243354797 0.2421875 0.11328125
-0.142857149243354797 0.2421875 0.1171875
-0.142857149243354797 0.2421875 0.12890625
-0.142857149243354797 0.2421875 0.1328125
-0.142857149243354797 0.2421875 0.13671875
-0.142857149243354797 0.24609375 0.11328125
-0.142857149243354797 0.24609375 0.1171875
-0.142857149243354797 0.24609375 0.12109375
-0.142857149243354797 0.24609375 0.12890625
-0.142857149243354797 0.24609375 0.1328125
-0.142857149243354797 0.25 0.12109375
-0.142857149243354797 0.25 0.125
-0.133928567171096802 -0.2109375 -0.359375
-0.133928567171096802 -0.2109375 -0.35546875
-0.133928567171096802 -0.2109375 -0.3515625
-0.133928567171096802 -0.2109375 -0.34765625
-0.133928567171096802 -0.20703125 -0.359375
-0.133928567171096802 -0.20703125 -0.35546875
-0.133928567171096802 -0.20703125 -0.3515625
-0.133928567171096802 -0.20703125 -0.34765625
-0.133928567171096802 -0.20703125 -0.34375
-0.133928567171096802 -0.203125 -0.359375
-0.133928567171096802 -0.203125 -0.35546875
-0.133928567171096802 -0.203125 -0.33984375
-0.133928567171096802 -0.19921875 -0.359375
-0.133928567171096802 -0.19921875 -0.3359375
-0.133928567171096802 -0.1953125 -0.359375
-0.133928567171096802 -0.1953125 -0.33203125
-0.133928567171096802 -0.1953125 -0.328125
-0.133928567171096802 -0.19140625 -0.359375
-0.133928567171096802 -0.19140625 -0.328125
-0.133928567171096802 -0.1875 -0.359375
-0.133928567171096802 -0.1875 -0.328125
-0.133928567171096802 -0.18359375 -0.35546875
-0.133928567171096802 -0.18359375 -0.328125
-0.133928567171096802 -0.1796875 -0.3515625
-0.133928567171096802 -0.1796875 -0.34765625
-0.133928567171096802 -0.1796875 -0.328125
-0.133928567171096802 -0.17578125 -0.3515625
-0.133928567171096802 -0.17578125 -0.34765625
-0.133928567171096802 -0.17578125 -0.34375
-0.133928567171096802 -0.17578125 -0.328125
-0.133928567171096802 -0.171875 -0.34765625
-0.133928567171096802 -0.171875 -0.34375
-0.133928567171096802 -0.171875 -0.33984375
-0.133928567171096802 -0.171875 -0.3359375
-0.133928567171096802 -0.171875 -0.33203125
-0.133928567171096802 -0.171875 -0.328125
-0.133928567171096802 -0.16796875 -0.3359375
-0.133928567171096802 -0.16796875 -0.33203125
-0.133928567171096802 -0.16796875 -0.328125
-0.133928567171096802 0.1015625 -0.06640625
-0.133928567171096802 0.1015625 -0.0625
-0.133928567171096802 0.10546875 -0.0703125
-0.133928567171096802 0.10546875 -0.06640625
-0.133928567171096802 0.10546875 -0.0625
-0.133928567171096802 0.10546875 -0.05859375
-0.133928567171096802 0.10546875 -0.0546875
-0.133928567171096802 0.10546875 -0.05078125
-0.133928567171096802 0.109375 -0.0703125
-0.133928567171096802 0.109375 -0.06640625
-0.133928567171096802 0.109375 -0.0625
-0.133928567171096802 0.109375 -0.05078125
-0.133928567171096802 0.11328125 -0.06640625
-0.133928567171096802 0.11328125 -0.046875
-0.133928567171096802 0.1171875 -0.06640625
-0.133928567171096802 0.1171875 -0.04296875
-0.133928567171096802 0.12109375 -0.0625
-0.133928567171096802 0.12109375 -0.0390625
-0.133928567171096802 0.125 -0.0625
-0.133928567171096802 0.125 -0.04296875
-0.133928567171096802 0.125 -0.0390625
-0.133928567171096802 0.12890625 -0.05859375
-0.133928567171096802 0.12890625 -0.0546875
-0.133928567171096802 0.12890625 -0.05078125
-0.133928567171096802 0.12890625 -0.046875
-0.133928567171096802 0.12890625 -0.04296875
-0.133928567171096802 0.12890625 -0.0390625
-0.133928567171096802 0.1328125 -0.05078125
-0.133928567171096802 0.1328125 -0.046875
-0.133928567171096802 0.1328125 -0.04296875
-0.133928567171096802 0.1328125 -0.0390625
-0.133928567171096802 0.171875 0.03515625
-0.133928567171096802 0.171875 0.0390625
-0.133928567171096802 0.171875 0.04296875
-0.133928567171096802 0.171875 0.046875
-0.133928567171096802 0.17578125 0.03515625
-0.133928567171096802 0.17578125 0.0390625
-0.133928567171096802 0.17578125 0.046875
-0.133928567171096802 0.17578125 0.05078125
-0.133928567171096802 0.1796875 0.03515625
-0.133928567171096802 0.1796875 0.0390625
-0.133928567171096802 0.1796875 0.046875
-0.133928567171096802 0.1796875 0.05078125
-0.133928567171096802 0.18359375 0.0390625
-0.133928567171096802 0.18359375 0.04296875
-0.133928567171096802 0.18359375 0.046875
-0.133928567171096802 0.23828125 0.09765625
-0.133928567171096802 0.23828125 0.1015625
-0.133928567171096802 0.23828125 0.10546875
-0.133928567171096802 0.23828125 0.109375
-0.133928567171096802 0.23828125 0.11328125
-0.133928567171096802 0.23828125 0.1171875
-0.133928567171096802 0.2421875 0.09765625
-0.133928567171096802 0.2421875 0.1015625
-0.133928567171096802 0.2421875 0.10546875
-0.133928567171096802 0.2421875 0.109375
-0.133928567171096802 0.2421875 0.11328125
-0.133928567171096802 0.2421875 0.1171875
-0.133928567171096802 0.2421875 0.12109375
-0.133928567171096802 0.2421875 0.125
-0.133928567171096802 0.24609375 0.09765625
-0.133928567171096802 0.24609375 0.1015625
-0.133928567171096802 0.24609375 0.10546875
-0.133928567171096802 0.24609375 0.109375
-0.133928567171096802 0.24609375 0.11328125
-0.133928567171096802 0.24609375 0.1171875
-0.133928567171096802 0.24609375 0.12109375
-0.133928567171096802 0.24609375 0.125
-0.133928567171096802 0.25 0.10546875
-0.133928567171096802 0.25 0.109375
-0.133928567171096802 0.25 0.11328125
-0.125 -0.21484375 -0.359375
-0.125 -0.21484375 -0.35546875
-0.125 -0.21484375 -0.3515625
-0.125 -0.21484375 -0.34765625
-0.125 -0.21484375 -0.34375
-0.125 -0.21484375 -0.33984375
-0.125 -0.2109375 -0.36328125
-0.125 -0.2109375 -0.34375
-0.125 -0.20703125 -0.36328125
-0.125 -0.20703125 -0.33984375
-0.125 -0.203125 -0.3671875
-0.125 -0.203125 -0.36328125
-0.125 -0.203125 -0.3359375
-0.125 -0.19921875 -0.37109375
-0.125 -0.19921875 -0.3671875
-0.125 -0.19921875 -0.36328125
-0.125 -0.19921875 -0.3359375
-0.125 -0.1953125 -0.359375
-0.125 -0.1953125 -0.33203125
-0.125 -0.19140625 -0.359375
-0.125 -0.19140625 -0.33203125
-0.125 -0.1875 -0.359375
-0.125 -0.1875 -0.3359375
-0.125 -0.1875 -0.33203125
-0.125 -0.18359375 -0.35546875
-0.125 -0.18359375 -0.3515625
-0.125 -0.18359375 -0.34765625
-0.125 -0.18359375 -0.34375
-0.125 -0.18359375 -0.33984375
-0.125 -0.18359375 -0.3359375
-0.125 -0.18359375 -0.33203125
-0.125 -0.1796875 -0.34375
-0.125 -0.1796875 -0.33984375
-0.125 -0.1796875 -0.3359375
-0.125 -0.1796875 -0.33203125
-0.125 -0.17578125 -0.33984375
-0.125 -0.17578125 -0.3359375
-0.125 -0.17578125 -0.33203125
-0.125 0.109375 -0.05859375
-0.125 0.109375 -0.0546875
-0.125 0.109375 -0.05078125
-0.125 0.11328125 -0.0625
-0.125 0.11328125 -0.05859375
-0.125 0.11328125 -0.0546875
-0.125 0.11328125 -0.05078125
-0.125 0.11328125 -0.046875
-0.125 0.1171875 -0.0625
-0.125 0.1171875 -0.05859375
-0.125 0.1171875 -0.04296875
-0.125 0.12109375 -0.0625
-0.125 0.12109375 -0.05859375
-0.125 0.12109375 -0.0390625
-0.125 0.125 -0.0625
-0.125 0.125 -0.03515625
-0.125 0.12890625 -0.05859375
-0.125 0.12890625 -0.03515625
-0.125 0.12890625 -0.03125
-0.125 0.1328125 -0.0546875
-0.125 0.1328125 -0.03515625
-0.125 0.1328125 -0.03125
-0.125 0.13671875 -0.05078125
-0.125 0.13671875 -0.046875
-0.125 0.13671875 -0.04296875
-0.125 0.13671875 -0.0390625
-0.125 0.13671875 -0.03515625
-0.125 0.13671875 -0.03125
-0.125 0.14453125 0.015625
-0.125 0.14453125 0.01953125
-0.125 0.14453125 0.0234375
-0.125 0.14453125 0.02734375
-0.125 0.1484375 0.015625
-0.125 0.1484375 0.01953125
-0.125 0.1484375 0.0234375
-0.125 0.1484375 0.02734375
-0.125 0.1484375 0.03125
-0.125 0.171875 0.0234375
-0.125 0.171875 0.02734375
-0.125 0.171875 0.03125
-0.125 0.171875 0.03515625
-0.125 0.171875 0.0390625
-0.125 0.171875 0.04296875
-0.125 0.17578125 0.02734375
-0.125 0.17578125 0.03125
-0.125 0.17578125 0.0390625
-0.125 0.17578125 0.04296875
-0.125 0.1796875 0.03515625
-0.125 0.1796875 0.0390625
-0.125 0.1796875 0.04296875
-0.125 0.234375 0.08203125
-0.125 0.234375 0.0859375
-0.125 0.234375 0.08984375
-0.125 0.23828125 0.08203125
-0.125 0.23828125 0.0859375
-0.125 0.23828125 0.08984375
-0.125 0.23828125 0.09375
-0.125 0.23828125 0.09765625
-0.125 0.23828125 0.1015625
-0.125 0.2421875 0.0859375
-0.125 0.2421875 0.08984375
-0.125 0.2421875 0.09375
-0.125 0.2421875 0.09765625
-0.125 0.2421875 0.1015625
-0.125 0.2421875 0.10546875
-0.125 0.24609375 0.08984375
-0.125 0.24609375 0.09375
-0.125 0.24609375 0.09765625
-0.125 0.24609375 0.1015625
-0.125 0.24609375 0.10546875
-0.116071425378322601 -0.22265625 -0.3671875
-0.116071425378322601 -0.22265625 -0.36328125
-0.116071425378322601 -0.22265625 -0.359375
-0.116071425378322601 -0.22265625 -0.35546875
-0.116071425378322601 -0.21875 -0.3671875
-0.116071425378322601 -0.21875 -0.36328125
-0.116071425378322601 -0.21875 -0.359375
-0.116071425378322601 -0.21875 -0.35546875
-0.116071425378322601 -0.21875 -0.3515625
-0.116071425378322601 -0.21875 -0.34765625
-0.116071425378322601 -0.21484375 -0.3671875
-0.116071425378322601 -0.21484375 -0.36328125
-0.116071425378322601 -0.21484375 -0.34375
-0.116071425378322601 -0.21484375 -0.33984375
-0.116071425378322601 -0.2109375 -0.3671875
-0.116071425378322601 -0.2109375 -0.33984375
-0.116071425378322601 -0.20703125 -0.3671875
-0.116071425378322601 -0.20703125 -0.33984375
-0.116071425378322601 -0.203125 -0.3671875
-0.116071425378322601 -0.203125 -0.3359375
-0.116071425378322601 -0.19921875 -0.36328125
-0.116071425378322601 -0.19921875 -0.33984375
-0.116071425378322601 -0.19921875 -0.3359375
-0.116071425378322601 -0.1953125 -0.36328125
-0.116071425378322601 -0.1953125 -0.33984375
-0.116071425378322601 -0.1953125 -0.3359375
-0.116071425378322601 -0.19140625 -0.359375
-0.116071425378322601 -0.19140625 -0.35546875
-0.116071425378322601 -0.19140625 -0.34375
-0.116071425378322601 -0.19140625 -0.33984375
-0.116071425378322601 -0.19140625 -0.3359375
-0.116071425378322601 -0.1875 -0.35546875
-0.116071425378322601 -0.1875 -0.3515625
-0.116071425378322601 -0.1875 -0.34765625
-0.116071425378322601 -0.1875 -0.34375
-0.116071425378322601 -0.1875 -0.33984375
-0.116071425378322601 -0.18359375 -0.3515625
-0.116071425378322601 -0.18359375 -0.34765625
-0.116071425378322601 0.1171875 -0.0546875
-0.116071425378322601 0.1171875 -0.05078125
-0.116071425378322601 0.1171875 -0.046875
-0.116071425378322601 0.1171875 -0.04296875
-0.116071425378322601 0.12109375 -0.0546875
-0.116071425378322601 0.12109375 -0.05078125
-0.116071425378322601 0.12109375 -0.0390625
-0.116071425378322601 0.125 -0.05859375
-0.116071425378322601 0.125 -0.0546875
-0.116071425378322601 0.125 -0.03515625
-0.116071425378322601 0.12890625 -0.05859375
-0.116071425378322601 0.12890625 -0.0546875
-0.116071425378322601 0.12890625 -0.03125
-0.116071425378322601 0.1328125 -0.0546875
-0.116071425378322601 0.1328125 -0.03125
-0.116071425378322601 0.13671875 -0.05078125
-0.116071425378322601 0.13671875 -0.02734375
-0.116071425378322601 0.140625 -0.046875
-0.116071425378322601 0.140625 -0.04296875
-0.116071425378322601 0.140625 -0.0390625
-0.116071425378322601 0.140625 -0.03515625
-0.116071425378322601 0.140625 -0.03125
-0.116071425378322601 0.140625 -0.02734375
-0.116071425378322601 0.140625 -0.0234375
-0.116071425378322601 0.14453125 -0.0390625
-0.116071425378322601 0.14453125 -0.03515625
-0.116071425378322601 0.14453125 -0.03125
-0.116071425378322601 0.14453125 -0.02734375
-0.116071425378322601 0.14453125 -0.0234375
-0.116071425378322601 0.14453125 0.0078125
-0.116071425378322601 0.14453125 0.01171875
-0.116071425378322601 0.14453125 0.015625
-0.116071425378322601 0.14453125 0.01953125
-0.116071425378322601 0.14453125 0.0234375
-0.116071425378322601 0.1484375 -0.0234375
-0.116071425378322601 0.1484375 -0.01953125
-0.116071425378322601 0.1484375 -0.015625
-0.116071425378322601 0.1484375 -0.01171875
-0.116071425378322601 0.1484375 0.0078125
-0.116071425378322601 0.1484375 0.01171875
-0.116071425378322601 0.1484375 0.015625
-0.116071425378322601 0.1484375 0.01953125
-0.116071425378322601 0.1484375 0.0234375
-0.116071425378322601 0.15234375 -0.01953125
-0.116071425378322601 0.15234375 -0.015625
-0.116071425378322601 0.15234375 -0.01171875
-0.116071425378322601 0.15234375 -0.0078125
-0.116071425378322601 0.15625 -0.01953125
-0.116071425378322601 0.15625 -0.015625
-0.116071425378322601 0.16796875 0.01953125
-0.116071425378322601 0.16796875 0.0234375
-0.116071425378322601 0.16796875 0.02734375
-0.116071425378322601 0.16796875 0.03125
-0.116071425378322601 0.171875 0.015625
-0.116071425378322601 0.171875 0.01953125
-0.116071425378322601 0.171875 0.03125
-0.116071425378322601 0.171875 0.03515625
-0.116071425378322601 0.17578125 0.015625
-0.116071425378322601 0.17578125 0.01953125
-0.116071425378322601 0.17578125 0.0234375
-0.116071425378322601 0.17578125 0.02734375
-0.116071425378322601 0.17578125 0.03125
-0.116071425378322601 0.17578125 0.03515625
-0.116071425378322601 0.2265625 0.06640625
-0.116071425378322601 0.2265625 0.0703125
-0.116071425378322601 0.2265625 0.07421875
-0.116071425378322601 0.2265625 0.078125
-0.116071425378322601 0.23046875 0.06640625
-0.116071425378322601 0.23046875 0.0703125
-0.116071425378322601 0.23046875 0.07421875
-0.116071425378322601 0.23046875 0.078125
-0.116071425378322601 0.23046875 0.08203125
-0.116071425378322601 0.23046875 0.0859375
-0.116071425378322601 0.234375 0.06640625
-0.116071425378322601 0.234375 0.0703125
-0.116071425378322601 0.234375 0.07421875
-0.116071425378322601 0.234375 0.078125
-0.116071425378322601 0.234375 0.0859375
-0.116071425378322601 0.23828125 0.0703125
-0.116071425378322601 0.23828125 0.07421875
-0.116071425378322601 0.23828125 0.078125
-0.116071425378322601 0.23828125 0.08984375
-0.116071425378322601 0.23828125 0.09375
-0.116071425378322601 0.2421875 0.08203125
-0.116071425378322601 0.2421875 0.0859375
-0.116071425378322601 0.2421875 0.08984375
-0.116071425378322601 0.2421875 0.09375
-0.1071428582072258 -0.2265625 -0.3671875
-0.1071428582072258 -0.2265625 -0.36328125
-0.1071428582072258 -0.2265625 -0.359375
-0.1071428582072258 -0.22265625 -0.37109375
-0.1071428582072258 -0.22265625 -0.35546875
-0.1071428582072258 -0.22265625 -0.3515625
-0.1071428582072258 -0.22265625 -0.34765625
-0.1071428582072258 -0.22265625 -0.34375
-0.1071428582072258 -0.21875 -0.37109375
-0.1071428582072258 -0.21875 -0.34375
-0.1071428582072258 -0.21484375 -0.37109375
-0.1071428582072258 -0.21484375 -0.33984375
-0.1071428582072258 -0.2109375 -0.37109375
-0.1071428582072258 -0.2109375 -0.33984375
-0.1071428582072258 -0.20703125 -0.37109375
-0.1071428582072258 -0.20703125 -0.33984375
-0.1071428582072258 -0.203125 -0.3671875
-0.1071428582072258 -0.203125 -0.33984375
-0.1071428582072258 -0.19921875 -0.36328125
-0.1071428582072258 -0.19921875 -0.34375
-0.1071428582072258 -0.1953125 -0.36328125
-0.1071428582072258 -0.1953125 -0.359375
-0.1071428582072258 -0.1953125 -0.35546875
-0.1071428582072258 -0.1953125 -0.3515625
-0.1071428582072258 -0.1953125 -0.34765625
-0.1071428582072258 -0.1953125 -0.34375
-0.1071428582072258 -0.19140625 -0.3515625
-0.1071428582072258 -0.19140625 -0.34765625
-0.1071428582072258 0.12109375 -0.046875
-0.1071428582072258 0.12109375 -0.04296875
-0.1071428582072258 0.125 -0.05078125
-0.1071428582072258 0.125 -0.046875
-0.1071428582072258 0.125 -0.04296875
-0.1071428582072258 0.125 -0.0390625
-0.1071428582072258 0.12890625 -0.05078125
-0.1071428582072258 0.12890625 -0.046875
-0.1071428582072258 0.12890625 -0.03515625
-0.1071428582072258 0.12890625 -0.03125
-0.1071428582072258 0.1328125 -0.05078125
-0.1071428582072258 0.1328125 -0.02734375
-0.1071428582072258 0.13671875 -0.046875
-0.1071428582072258 0.13671875 -0.0234375
-0.1071428582072258 0.140625 -0.046875
-0.1071428582072258 0.140625 -0.01953125
-0.1071428582072258 0.140625 -0.015625
-0.1071428582072258 0.140625 -0.01171875
-0.1071428582072258 0.14453125 -0.04296875
-0.1071428582072258 0.14453125 -0.0390625
-0.1071428582072258 0.14453125 -0.01953125
-0.1071428582072258 0.14453125 -0.015625
-0.1071428582072258 0.14453125 -0.01171875
-0.1071428582072258 0.14453125 -0.0078125
-0.1071428582072258 0.14453125 -0.00390625
-0.1071428582072258 0.14453125 0
-0.1071428582072258 0.14453125 0.00390625
-0.1071428582072258 0.14453125 0.0078125
-0.1071428582072258 0.14453125 0.01171875
-0.1071428582072258 0.1484375 -0.03515625
-0.1071428582072258 0.1484375 -0.03125
-0.1071428582072258 0.1484375 -0.02734375
-0.1071428582072258 0.1484375 -0.0078125
-0.1071428582072258 0.1484375 -0.00390625
-0.1071428582072258 0.1484375 0
-0.1071428582072258 0.1484375 0.00390625
-0.1071428582072258 0.1484375 0.0078125
-0.1071428582072258 0.1484375 0.01171875
-0.1071428582072258 0.15234375 -0.03125
-0.1071428582072258 0.15234375 -0.02734375
-0.1071428582072258 0.15234375 -0.0234375
-0.1071428582072258 0.15234375 -0.00390625
-0.1071428582072258 0.15234375 0
-0.1071428582072258 0.15234375 0.00390625
-0.1071428582072258 0.15625 -0.0234375
-0.1071428582072258 0.15625 -0.01171875
-0.1071428582072258 0.15625 -0.0078125
-0.1071428582072258 0.15625 -0.00390625
-0.1071428582072258 0.15625 0
-0.1071428582072258 0.16015625 -0.01953125
-0.1071428582072258 0.16015625 -0.015625
-0.1071428582072258 0.16015625 -0.01171875
-0.1071428582072258 0.16015625 -0.0078125
-0.1071428582072258 0.16015625 -0.00390625
-0.1071428582072258 0.16015625 0
-0.1071428582072258 0.16015625 0.00390625
-0.1071428582072258 0.1640625 -0.0078125
-0.1071428582072258 0.1640625 -0.00390625
-0.1071428582072258 0.1640625 0
-0.1071428582072258 0.1640625 0.00390625
-0.1071428582072258 0.1640625 0.0078125
-0.1071428582072258 0.1640625 0.01171875
-0.1071428582072258 0.1640625 0.015625
-0.1071428582072258 0.1640625 0.01953125
-0.1071428582072258 0.16796875 -0.0078125
-0.1071428582072258 0.16796875 -0.00390625
-0.1071428582072258 0.16796875 0
-0.1071428582072258 0.16796875 0.00390625
-0.1071428582072258 0.16796875 0.0078125
-0.1071428582072258 0.16796875 0.01171875
-0.1071428582072258 0.16796875 0.015625
-0.1071428582072258 0.16796875 0.0234375
-0.1071428582072258 0.171875 -0.00390625
-0.1071428582072258 0.171875 0
-0.1071428582072258 0.171875 0.00390625
-0.1071428582072258 0.171875 0.0078125
-0.1071428582072258 0.171875 0.01171875
-0.1071428582072258 0.171875 0.0234375
-0.1071428582072258 0.171875 0.02734375
-0.1071428582072258 0.17578125 0
-0.1071428582072258 0.17578125 0.00390625
-0.1071428582072258 0.17578125 0.0078125
-0.1071428582072258 0.17578125 0.01171875
-0.1071428582072258 0.17578125 0.015625
-0.1071428582072258 0.17578125 0.01953125
-0.1071428582072258 0.17578125 0.0234375
-0.1071428582072258 0.17578125 0.02734375
-0.1071428582072258 0.1796875 0
-0.1071428582072258 0.1796875 0.00390625
-0.1071428582072258 0.1796875 0.0078125
-0.1071428582072258 0.19921875 0.03515625
-0.1071428582072258 0.19921875 0.0390625
-0.1071428582072258 0.203125 0.03515625
-0.1071428582072258 0.203125 0.0390625
-0.1071428582072258 0.203125 0.04296875
-0.1071428582072258 0.20703125 0.0390625
-0.1071428582072258 0.20703125 0.04296875
-0.1071428582072258 0.20703125 0.046875
-0.1071428582072258 0.2109375 0.04296875
-0.1071428582072258 0.2109375 0.046875
-0.1071428582072258 0.2109375 0.05078125
-0.1071428582072258 0.2109375 0.0546875
-0.1071428582072258 0.21484375 0.04296875
-0.1071428582072258 0.21484375 0.046875
-0.1071428582072258 0.21484375 0.05078125
-0.1071428582072258 0.21484375 0.0546875
-0.1071428582072258 0.21484375 0.05859375
-0.1071428582072258 0.21875 0.046875
-0.1071428582072258 0.21875 0.05078125
-0.1071428582072258 0.21875 0.0546875
-0.1071428582072258 0.21875 0.05859375
-0.1071428582072258 0.21875 0.0625
-0.1071428582072258 0.22265625 0.05078125
-0.1071428582072258 0.22265625 0.0546875
-0.1071428582072258 0.22265625 0.05859375
-0.1071428582072258 0.22265625 0.0625
-0.1071428582072258 0.22265625 0.06640625
-0.1071428582072258 0.22265625 0.0703125
-0.1071428582072258 0.22265625 0.07421875
-0.1071428582072258 0.2265625 0.0546875
-0.1071428582072258 0.2265625 0.05859375
-0.1071428582072258 0.2265625 0.0625
-0.1071428582072258 0.2265625 0.07421875
-0.1071428582072258 0.2265625 0.078125
-0.1071428582072258 0.23046875 0.0625
-0.1071428582072258 0.23046875 0.078125
-0.1071428582072258 0.234375 0.06640625
-0.1071428582072258 0.234375 0.0703125
-0.1071428582072258 0.234375 0.07421875
-0.1071428582072258 0.234375 0.078125
-0.1071428582072258 0.234375 0.08203125
-0.1071428582072258 0.23828125 0.0703125
-0.1071428582072258 0.23828125 0.07421875
-0.1071428582072258 0.23828125 0.078125
-0.1071428582072258 0.23828125 0.08203125
-0.1071428582072258 0.23828125 0.0859375
-0.0982142835855484009 -0.23046875 -0.36328125
-0.0982142835855484009 -0.23046875 -0.359375
-0.0982142835855484009 -0.2265625 -0.3671875
-0.0982142835855484009 -0.2265625 -0.35546875
-0.0982142835855484009 -0.2265625 -0.3515625
-0.0982142835855484009 -0.2265625 -0.34765625
-0.0982142835855484009 -0.22265625 -0.37109375
-0.0982142835855484009 -0.22265625 -0.34375
-0.0982142835855484009 -0.21875 -0.37109375
-0.0982142835855484009 -0.21875 -0.34375
-0.0982142835855484009 -0.21484375 -0.37109375
-0.0982142835855484009 -0.21484375 -0.34375
-0.0982142835855484009 -0.2109375 -0.37109375
-0.0982142835855484009 -0.2109375 -0.33984375
-0.0982142835855484009 -0.20703125 -0.37109375
-0.0982142835855484009 -0.20703125 -0.34375
-0.0982142835855484009 -0.20703125 -0.33984375
-0.0982142835855484009 -0.203125 -0.3671875
-0.0982142835855484009 -0.203125 -0.34765625
-0.0982142835855484009 -0.203125 -0.34375
-0.0982142835855484009 -0.19921875 -0.36328125
-0.0982142835855484009 -0.19921875 -0.359375
-0.0982142835855484009 -0.19921875 -0.35546875
-0.0982142835855484009 -0.19921875 -0.3515625
-0.0982142835855484009 -0.19921875 -0.34765625
-0.0982142835855484009 0.12890625 -0.04296875
-0.0982142835855484009 0.12890625 -0.0390625
-0.0982142835855484009 0.12890625 -0.03515625
-0.0982142835855484009 0.1328125 -0.046875
-0.0982142835855484009 0.1328125 -0.04296875
-0.0982142835855484009 0.1328125 -0.0390625
-0.0982142835855484009 0.1328125 -0.03515625
-0.0982142835855484009 0.1328125 -0.03125
-0.0982142835855484009 0.1328125 -0.02734375
-0.0982142835855484009 0.13671875 -0.046875
-0.0982142835855484009 0.13671875 -0.04296875
-0.0982142835855484009 0.13671875 -0.0234375
-0.0982142835855484009 0.140625 -0.046875
-0.0982142835855484009 0.140625 -0.04296875
-0.0982142835855484009 0.140625 -0.01953125
-0.0982142835855484009 0.140625 -0.015625
-0.0982142835855484009 0.140625 -0.01171875
-0.0982142835855484009 0.14453125 -0.04296875
-0.0982142835855484009 0.14453125 -0.0390625
-0.0982142835855484009 0.14453125 -0.0078125
-0.0982142835855484009 0.14453125 -0.00390625
-0.0982142835855484009 0.1484375 -0.03515625
-0.0982142835855484009 0.1484375 0
-0.0982142835855484009 0.15234375 -0.03125
-0.0982142835855484009 0.15234375 0
-0.0982142835855484009 0.15625 -0.02734375
-0.0982142835855484009 0.15625 -0.0234375
-0.0982142835855484009 0.15625 0.00390625
-0.0982142835855484009 0.16015625 -0.01953125
-0.0982142835855484009 0.16015625 0.0078125
-0.0982142835855484009 0.16015625 0.01171875
-0.0982142835855484009 0.1640625 -0.015625
-0.0982142835855484009 0.1640625 -0.01171875
-0.0982142835855484009 0.1640625 0.015625
-0.0982142835855484009 0.16796875 -0.0078125
-0.0982142835855484009 0.16796875 0.01953125
-0.0982142835855484009 0.171875 -0.0078125
-0.0982142835855484009 0.171875 -0.00390625
-0.0982142835855484009 0.171875 0.01953125
-0.0982142835855484009 0.17578125 0
-0.0982142835855484009 0.17578125 0.0234375
-0.0982142835855484009 0.1796875 0.00390625
-0.0982142835855484009 0.1796875 0.01171875
-0.0982142835855484009 0.1796875 0.015625
-0.0982142835855484009 0.1796875 0.01953125
-0.0982142835855484009 0.1796875 0.0234375
-0.0982142835855484009 0.18359375 0.0078125
-0.0982142835855484009 0.18359375 0.01171875
-0.0982142835855484009 0.18359375 0.015625
-0.0982142835855484009 0.18359375 0.01953125
-0.0982142835855484009 0.18359375 0.0234375
-0.0982142835855484009 0.18359375 0.02734375
-0.0982142835855484009 0.1875 0.01171875
-0.0982142835855484009 0.1875 0.015625
-0.0982142835855484009 0.1875 0.01953125
-0.0982142835855484009 0.1875 0.0234375
-0.0982142835855484009 0.1875 0.02734375
-0.0982142835855484009 0.1875 0.03125
-0.0982142835855484009 0.19140625 0.015625
-0.0982142835855484009 0.19140625 0.01953125
-0.0982142835855484009 0.19140625 0.0234375
-0.0982142835855484009 0.19140625 0.02734375
-0.0982142835855484009 0.19140625 0.03125
-0.0982142835855484009 0.19140625 0.03515625
-0.0982142835855484009 0.1953125 0.01953125
-0.0982142835855484009 0.1953125 0.0234375
-0.0982142835855484009 0.1953125 0.02734375
-0.0982142835855484009 0.1953125 0.03125
-0.0982142835855484009 0.1953125 0.03515625
-0.0982142835855484009 0.1953125 0.0390625
-0.0982142835855484009 0.19921875 0.0234375
-0.0982142835855484009 0.19921875 0.02734375
-0.0982142835855484009 0.19921875 0.03125
-0.0982142835855484009 0.19921875 0.04296875
-0.0982142835855484009 0.203125 0.02734375
-0.0982142835855484009 0.203125 0.03125
-0.0982142835855484009 0.203125 0.046875
-0.0982142835855484009 0.20703125 0.03125
-0.0982142835855484009 0.20703125 0.03515625
-0.0982142835855484009 0.20703125 0.05078125
-0.0982142835855484009 0.2109375 0.03515625
-0.0982142835855484009 0.2109375 0.0390625
-0.0982142835855484009 0.2109375 0.0546875
-0.0982142835855484009 0.21484375 0.0390625
-0.0982142835855484009 0.21484375 0.0546875
-0.0982142835855484009 0.21484375 0.05859375
-0.0982142835855484009 0.21875 0.04296875
-0.0982142835855484009 0.21875 0.0546875
-0.0982142835855484009 0.21875 0.05859375
-0.0982142835855484009 0.21875 0.0625
-0.0982142835855484009 0.22265625 0.046875
-0.0982142835855484009 0.22265625 0.05078125
-0.0982142835855484009 0.22265625 0.0546875
-0.0982142835855484009 0.22265625 0.05859375
-0.0982142835855484009 0.22265625 0.0625
-0.0982142835855484009 0.22265625 0.06640625
-0.0982142835855484009 0.2265625 0.0546875
-0.0982142835855484009 0.2265625 0.05859375
-0.0982142835855484009 0.2265625 0.0625
-0.0982142835855484009 0.2265625 0.06640625
-0.0982142835855484009 0.2265625 0.0703125
-0.0982142835855484009 0.23046875 0.0625
-0.0982142835855484009 0.23046875 0.06640625
-0.0982142835855484009 0.23046875 0.0703125
-0.0982142835855484009 0.23046875 0.07421875
-0.0892857164144515991 -0.234375 -0.36328125
-0.0892857164144515991 -0.234375 -0.359375
-0.0892857164144515991 -0.23046875 -0.375
-0.0892857164144515991 -0.23046875 -0.37109375
-0.0892857164144515991 -0.23046875 -0.3671875
-0.0892857164144515991 -0.23046875 -0.35546875
-0.0892857164144515991 -0.23046875 -0.3515625
-0.0892857164144515991 -0.23046875 -0.34765625
-0.0892857164144515991 -0.2265625 -0.375
-0.0892857164144515991 -0.2265625 -0.37109375
-0.0892857164144515991 -0.2265625 -0.34765625
-0.0892857164144515991 -0.22265625 -0.375
-0.0892857164144515991 -0.22265625 -0.34765625
-0.0892857164144515991 -0.21875 -0.375
-0.0892857164144515991 -0.21875 -0.34765625
-0.0892857164144515991 -0.21484375 -0.37109375
-0.0892857164144515991 -0.21484375 -0.34765625
-0.0892857164144515991 -0.21484375 -0.34375
-0.0892857164144515991 -0.2109375 -0.37109375
-0.0892857164144515991 -0.2109375 -0.34765625
-0.0892857164144515991 -0.2109375 -0.34375
-0.0892857164144515991 -0.20703125 -0.3671875
-0.0892857164144515991 -0.20703125 -0.3515625
-0.0892857164144515991 -0.20703125 -0.34765625
-0.0892857164144515991 -0.203125 -0.36328125
-0.0892857164144515991 -0.203125 -0.359375
-0.0892857164144515991 -0.203125 -0.35546875
-0.0892857164144515991 -0.203125 -0.3515625
-0.0892857164144515991 0.13671875 -0.0390625
-0.0892857164144515991 0.13671875 -0.03515625
-0.0892857164144515991 0.13671875 -0.03125
-0.0892857164144515991 0.13671875 -0.02734375
-0.0892857164144515991 0.140625 -0.0390625
-0.0892857164144515991 0.140625 -0.03515625
-0.0892857164144515991 0.140625 -0.03125
-0.0892857164144515991 0.140625 -0.02734375
-0.0892857164144515991 0.140625 -0.0234375
-0.0892857164144515991 0.140625 -0.01953125
-0.0892857164144515991 0.140625 -0.015625
-0.0892857164144515991 0.14453125 -0.03515625
-0.0892857164144515991 0.14453125 -0.03125
-0.0892857164144515991 0.14453125 -0.0234375
-0.0892857164144515991 0.14453125 -0.01953125
-0.0892857164144515991 0.14453125 -0.015625
-0.0892857164144515991 0.14453125 -0.01171875
-0.0892857164144515991 0.14453125 -0.0078125
-0.0892857164144515991 0.1484375 -0.03515625
-0.0892857164144515991 0.1484375 -0.03125
-0.0892857164144515991 0.1484375 -0.01953125
-0.0892857164144515991 0.1484375 -0.015625
-0.0892857164144515991 0.1484375 -0.01171875
-0.0892857164144515991 0.1484375 -0.0078125
-0.0892857164144515991 0.1484375 -0.00390625
-0.0892857164144515991 0.15234375 -0.03125
-0.0892857164144515991 0.15234375 -0.01953125
-0.0892857164144515991 0.15234375 -0.015625
-0.0892857164144515991 0.15234375 -0.01171875
-0.0892857164144515991 0.15234375 -0.0078125
-0.0892857164144515991 0.15234375 -0.00390625
-0.0892857164144515991 0.15234375 0
-0.0892857164144515991 0.15625 -0.02734375
-0.0892857164144515991 0.15625 -0.0234375
-0.0892857164144515991 0.15625 -0.01953125
-0.0892857164144515991 0.15625 -0.015625
-0.0892857164144515991 0.15625 -0.01171875
-0.0892857164144515991 0.15625 -0.0078125
-0.0892857164144515991 0.15625 -0.00390625
-0.0892857164144515991 0.15625 0
-0.0892857164144515991 0.15625 0.00390625
-0.0892857164144515991 0.16015625 -0.01953125
-0.0892857164144515991 0.16015625 -0.015625
-0.0892857164144515991 0.16015625 -0.01171875
-0.0892857164144515991 0.16015625 -0.0078125
-0.0892857164144515991 0.16015625 -0.00390625
-0.0892857164144515991 0.16015625 0.00390625
-0.0892857164144515991 0.16015625 0.0078125
-0.0892857164144515991 0.1640625 -0.015625
-0.0892857164144515991 0.1640625 -0.01171875
-0.0892857164144515991 0.1640625 -0.0078125
-0.0892857164144515991 0.1640625 -0.00390625
-0.0892857164144515991 0.1640625 0
-0.0892857164144515991 0.1640625 0.00390625
-0.0892857164144515991 0.1640625 0.0078125
-0.0892857164144515991 0.1640625 0.01171875
-0.0892857164144515991 0.16796875 -0.0078125
-0.0892857164144515991 0.16796875 -0.00390625
-0.0892857164144515991 0.16796875 0
-0.0892857164144515991 0.16796875 0.00390625
-0.0892857164144515991 0.16796875 0.0078125
-0.0892857164144515991 0.16796875 0.01171875
-0.0892857164144515991 0.16796875 0.015625
-0.0892857164144515991 0.171875 -0.00390625
-0.0892857164144515991 0.171875 0
-0.0892857164144515991 0.171875 0.00390625
-0.0892857164144515991 0.171875 0.0078125
-0.0892857164144515991 0.171875 0.01171875
-0.0892857164144515991 0.171875 0.015625
-0.0892857164144515991 0.171875 0.01953125
-0.0892857164144515991 0.17578125 0
-0.0892857164144515991 0.17578125 0.00390625
-0.0892857164144515991 0.17578125 0.0078125
-0.0892857164144515991 0.17578125 0.01953125
-0.0892857164144515991 0.1796875 0.00390625
-0.0892857164144515991 0.1796875 0.0078125
-0.0892857164144515991 0.1796875 0.01953125
-0.0892857164144515991 0.1796875 0.0234375
-0.0892857164144515991 0.18359375 0.0078125
-0.0892857164144515991 0.18359375 0.0234375
-0.0892857164144515991 0.1875 0.01171875
-0.0892857164144515991 0.1875 0.0234375
-0.0892857164144515991 0.1875 0.02734375
-0.0892857164144515991 0.1875 0.03125
-0.0892857164144515991 0.19140625 0.015625
-0.0892857164144515991 0.19140625 0.03125
-0.0892857164144515991 0.19140625 0.03515625
-0.0892857164144515991 0.1953125 0.01953125
-0.0892857164144515991 0.1953125 0.0234375
-0.0892857164144515991 0.1953125 0.03125
