ply
format ascii 1.0
element vertex 1015
comment vertices
property float x
property float y
property float z
end_header
-0.0357142910361289978 -0.1328125 -0.41796875
0.133928567171096802 -0.15625 -0.40234375
0.375 -0.105468764901161194 -0.23828125
-0.0714285820722579956 -0.12890625 -0.41796875
0.142857149243354797 -0.16796875 -0.421875
0.133928567171096802 -0.1484375 -0.42578125
-0.375000029802322388 0.046875 -0.37890625
-0.366071432828903198 0.12109375 -0.3359375
-0.0714285820722579956 -0.12109375 -0.4296875
-0.366071403026580811 0.128906235098838806 -0.30859375
-8.97368713625307235e-13 -0.125 -0.421875
-0.0982142835855484009 -0.10546875 -0.4296875
-0.267857134342193604 -0.08203125 -0.41796875
0.348214298486709595 -0.12109375 -0.27734375
-0.374999970197677612 0.13671875 -0.3046875
0.0535714291036128998 -0.132812485098838806 -0.4296875
0.276785701513290405 -0.15625 -0.3671875
-0.232142850756645203 -0.09765625 -0.4296875
0.339285701513290405 -0.12890625 -0.2578125
0.339285761117935181 -0.15625 -0.3046875
0.116071425378322601 -0.1484375 -0.42578125
0.196428537368774414 -0.1484375 -0.3984375
-0.0446428582072257996 -0.1171875 -0.406249970197677612
0.348214298486709595 -0.125 -0.2578125
0.446428507566452026 -0.0625 -0.128906279802322388
-0.383928537368774414 0.11328125 -0.343750029802322388
-0.142857149243354797 -0.109375 -0.410156279802322388
-0.0357142873108386993 -0.12890625 -0.40625
-0.0446428582072257996 -0.1328125 -0.41796875
-0.339285701513290405 -0.00390625046566128731 -0.3984375
0.133928552269935608 -0.152343735098838806 -0.406249970197677612
0.0892857089638710022 -0.13671875 -0.414062440395355225
0.0178571436554193497 -0.136718764901161194 -0.441406220197677612
-0.205357149243354797 -0.08984375 -0.4296875
-0.214285716414451599 -0.08203125 -0.421875
0.4375 -0.0625 -0.128906264901161194
-0.1071428582072258 -0.12109375 -0.4296875
-0.0267857145518064499 -0.12890625 -0.41015625
0.366071403026580811 -0.1171875 -0.218757569789886475
-0.125 -0.113281257450580597 -0.4140625
0.33035692572593689 -0.1640625 -0.30859375
-0.196428567171096802 -0.08984375 -0.43359375
-4.3093406989526406e-13 -0.12109375 -0.4296875
-0.375 0.0898437425494194031 -0.3671875
-0.0803571417927742004 -0.125 -0.41015625
-0.357142895460128784 0.12109375 -0.328125029802322388
0.410714298486709595 -0.1015625 -0.16015625
-2.43451526299454102e-12 -0.12109375 -0.4375
0.312500029802322388 -0.16650390625 -0.335937529802322388
0.285714298486709595 -0.1484375 -0.3359375
0.267857134342193604 -0.171875 -0.36328125
-0.241104006767272949 -0.0976769030094146729 -0.4296875
0.464285701513290405 -0.0499865859746932983 -0.0931031033396720886
-0.392857104539871216 0.0703125074505805969 -0.38671875
0.401785701513290405 -0.125000014901161194 -0.2109375
0.40178564190864563 -0.1171875 -0.230468764901161194
-0.089285723865032196 -0.125 -0.41796875
-0.0803571492433547974 -0.12109375 -0.4296875
5.62657776273511878e-13 -0.13671875 -0.44140625
0.285714298486709595 -0.16796875 -0.3515625
-0.0267857145518064499 -0.12890625 -0.42578125
-0.321428596973419189 -0.0703124925494194031 -0.3984375
0.116071425378322601 -0.15234375 -0.42578125
-0.241071432828903198 -0.1015625 -0.42578125
0.0714285746216773987 -0.1484375 -0.4140625
0.303571432828903198 -0.1484375 -0.3125
0.357142865657806396 -0.1171875 -0.2734375
0.392857134342193604 -0.1171875 -0.2421875
0.464285701513290405 -0.0372705757617950439 -0.0982396230101585388
0.339285701513290405 -0.13671875 -0.2578125
-0.375000029802322388 0.07421875 -0.3828125
-0.0446428582072257996 -0.1171875 -0.40625
0.142857149243354797 -0.171875 -0.41015625
-0.151785716414451599 -0.101562507450580597 -0.43359375
-0.357142895460128784 0.01953125 -0.402343720197677612
-0.160714283585548401 -0.109375 -0.43359375
0.178571432828903198 -0.171875 -0.40234375
0.419642865657806396 -0.10546875 -0.15234375
-0.0267857145518064499 -0.11328125 -0.41015625
-0.276785701513290405 -0.078125 -0.40625
0.0714285746216773987 -0.14453125 -0.43359375
-0.0178571436554193497 -0.11328125 -0.4140625
-0.374999970197677612 0.140625014901161194 -0.285156309604644775
0.205357149243354797 -0.15625 -0.3984375
-0.1071428582072258 -0.11328125 -0.41015625
-0.366071432828903198 0.117187507450580597 -0.3515625
0.00892857182770967484 -0.13671875 -0.441406279802322388
-0.348214298486709595 -0.015625 -0.3828125
-0.285714298486709595 -0.0859375 -0.401367217302322388
-0.366071432828903198 0.03125 -0.39453125
0.276785731315612793 -0.156250014901161194 -0.33984375
0.0982142835855484009 -0.144531264901161194 -0.41015625
0.214285716414451599 -0.16015625 -0.398437470197677612
0.410714298486709595 -0.08984375 -0.16015625
0.455357164144515991 -0.06640625 -0.125
-0.0982142835855484009 -0.12109375 -0.42578125
-0.232142850756645203 -0.101562492549419403 -0.4140625
0.116071432828903198 -0.16015625 -0.42578125
0.339285701513290405 -0.15234375 -0.273437470197677612
-0.0357142873108386993 -0.12890625 -0.42578125
-0.375 -0.0078125 -0.40234375
0.375 -0.109375 -0.24609375
0.142857149243354797 -0.15234375 -0.421875
0.205357149243354797 -0.171875 -0.37890625
-0.330357164144515991 -0.03515625 -0.38671875
-0.0535714291036128998 -0.12890625 -0.42578125
-0.0446428582072257996 -0.125 -0.40625
-0.232142850756645203 -0.100911460816860199 -0.41015625
-0.0357142873108386993 -0.1328125 -0.41796875
-0.160714283585548401 -0.09765625 -0.4140625
-0.0714285746216773987 -0.10546875 -0.4140625
0.0714285746216773987 -0.15625 -0.421875
-0.0982142835855484009 -0.12109375 -0.4296875
-0.0446428544819355011 -0.125 -0.4296875
-0.223214283585548401 -0.0859375074505805969 -0.41796875
-0.187499985098838806 -0.109375 -0.42578125
-0.330357104539871216 -0.0615234337747097015 -0.389648497104644775
0.285714268684387207 -0.15234375 -0.355468779802322388
-0.366071432828903198 0.09375 -0.37890625
0.1071428582072258 -0.16015625 -0.421875029802322388
-0.0625 -0.1171875 -0.4296875
0.151785716414451599 -0.16015625 -0.421875
0.0535714291036128998 -0.140625 -0.414062470197677612
2.69426083006341077e-12 -0.140625 -0.43359375
-0.258928567171096802 -0.0937500074505805969 -0.4140625
0.375 -0.1328125 -0.234375
0.428571432828903198 -0.0820312425494194031 -0.11328125
0.4375 -0.0615382902324199677 -0.0927722379565238953
0.214285716414451599 -0.171875 -0.375000029802322388
0.357142865657806396 -0.121093764901161194 -0.28125
0.383928596973419189 -0.1015625 -0.2177734375
-0.0178571436554193497 -0.125 -0.4296875
-0.383928567171096802 0.0234375 -0.390625
0.1875 -0.171875 -0.40234375
-0.0446428582072257996 -0.109375 -0.4140625
0.0267857145518064499 -0.1328125 -0.44140625
-0.25 -0.0820312425494194031 -0.4140625
0.410714238882064819 -0.118164069950580597 -0.20703125
0.0892857164144515991 -0.1484375 -0.42578125
-0.1875 -0.08984375 -0.43359375
-0.0803571417927742004 -0.12890625 -0.4140625
-0.357142835855484009 0.140625 -0.296875
-0.357142925262451172 0.132812485098838806 -0.316406309604644775
0.25 -0.16796875 -0.375
0.464285701513290405 -0.0160044636577367783 -0.0897370651364326477
0.116071425378322601 -0.140625 -0.4140625
-0.366071432828903198 0.078125 -0.375
0.0714285746216773987 -0.156250014901161194 -0.4296875
0.0357142873108386993 -0.144531264901161194 -0.42578125
-0.348214298486709595 0.0078125 -0.40234375
0.241071417927742004 -0.167968764901161194 -0.382812529802322388
0.169642850756645203 -0.16015625 -0.38671875
-0.348214298486709595 -0.046875 -0.390625
-0.383928537368774414 0.0273437518626451492 -0.386718779802322388
-0.160714283585548401 -0.1015625 -0.43359375
-0.375000029802322388 0.1171875 -0.316406279802322388
0.0357142873108386993 -0.12890625 -0.437499940395355225
-0.0535714291036128998 -0.11328125 -0.41015625
-0.0267857145518064499 -0.109375 -0.4140625
-0.366071432828903198 0.125 -0.31640625
0.348214298486709595 -0.140625029802322388 -0.2578125
0.0892857164144515991 -0.1484375 -0.42578125
0.116071425378322601 -0.15625 -0.4296875
0.446428537368774414 -0.09765625 -0.160156279802322388
0.205357149243354797 -0.15234375 -0.386718779802322388
-0.375 0.05078125 -0.3828125
-0.366071432828903198 0.125 -0.33203125
0.0714285746216773987 -0.1484375 -0.414062529802322388
0.446428626775741577 -0.018229164183139801 -0.109375
-0.232142850756645203 -0.0859374925494194031 -0.417968571186065674
-0.205357149243354797 -0.109375 -0.42578125
-0.133928567171096802 -0.11328125 -0.4296875
0.241071447730064392 -0.15234375 -0.36328125
0.196428567171096802 -0.15234375 -0.390625
0.410714298486709595 -0.12109375 -0.1953125
0.410714298486709595 -0.101562492549419403 -0.152343735098838806
0.241071432828903198 -0.167285725474357605 -0.395808100700378418
0.196428596973419189 -0.1640625 -0.406250029802322388
0.446428626775741577 -0.0820312425494194031 -0.1484375
0.312499970197677612 -0.16015625 -0.34765625
-0.357142865657806396 0.105468757450580597 -0.363281279802322388
0.0267857164144515991 -0.13671875 -0.425781220197677612
-0.401785701513290405 0.08203125 -0.375
-0.0267857145518064499 -0.125 -0.41015625
-0.169642850756645203 -0.11328125 -0.42578125
0.160714283585548401 -0.148437485098838806 -0.4140625
0.294642865657806396 -0.14453125 -0.328125
0.392857134342193604 -0.10546875 -0.2265625
0.0982142835855484009 -0.156250014901161194 -0.41015625
-0.365131109952926636 0.0625 -0.390624970197677612
-0.142857149243354797 -0.109375014901161194 -0.41015625
-0.0535714291036128998 -0.1328125 -0.421875029802322388
0.116071425378322601 -0.14453125 -0.410156279802322388
-0.383928537368774414 0.0117187509313225746 -0.3994140625
0.0892857164144515991 -0.1484375 -0.425781279802322388
0.366071432828903198 -0.10546875 -0.222656264901161194
0.196428567171096802 -0.17578125 -0.390625
-0.375 0.015625 -0.38671875
-0.312499970197677612 -0.0546875 -0.390625
0.339285701513290405 -0.15625 -0.3046875
0.446428596973419189 -0.015625 -0.07421875
-0.366071432828903198 0.125 -0.30078125
0.3125 -0.1640625 -0.3125
-0.258928567171096802 -0.09375 -0.4140625
0.321428596973419189 -0.1328125 -0.3046875
0.446428567171096802 -0.015625 -0.07421875
-0.375 0.07421875 -0.390625
-0.0892857164144515991 -0.109375 -0.4296875
-0.375 0.06170625239610672 -0.39453125
-0.383928596973419189 0.12890625 -0.31640625
-0.375000029802322388 0.0888671949505805969 -0.37109375
-0.178571432828903198 -0.109375 -0.4296875
0.196428567171096802 -0.16796875 -0.40234375
0.0982142835855484009 -0.140625 -0.417968690395355225
0.375 -0.11328125 -0.26171875
-0.0178571436554193497 -0.136718764901161194 -0.417968779802322388
-0.366071432828903198 0.09375 -0.359375
0.125 -0.1796875 -0.40625
-0.357142865657806396 0.0859375 -0.37109375
0.383928567171096802 -0.10546875 -0.23828125
0.232142850756645203 -0.1640625 -0.3671875
0.446428567171096802 -0.02734375 -0.0963541716337203979
-0.178571432828903198 -0.109375 -0.41796875
0.303571403026580811 -0.152971416711807251 -0.348088294267654419
-0.0625 -0.128906235098838806 -0.41015625
-0.0625 -0.109375 -0.42578125
0.116071432828903198 -0.140625 -0.4140625
-0.339285701513290405 -0.02734375 -0.40234375
-5.27297220373045689e-14 -0.128906235098838806 -0.4375
0.241071432828903198 -0.15234375 -0.3671875
0.321428567171096802 -0.1640625 -0.32421875
-0.116071425378322601 -0.12109375 -0.42578125
0.410714268684387207 -0.08984375 -0.1494140625
0.160714268684387207 -0.15234375 -0.417968779802322388
-0.375 5.36847964086734075e-13 -0.3984375
0.267857104539871216 -0.15234375 -0.3515625
-0.339285701513290405 -0.0273437518626451492 -0.3828125
-0.214285716414451599 -0.09765625 -0.41015625
-0.169642850756645203 -0.0937500074505805969 -0.4296875
0.410714268684387207 -0.09375 -0.15625
0.116071425378322601 -0.156249970197677612 -0.4296875
-0.116071425378322601 -0.105468742549419403 -0.43359375
-0.116071425378322601 -0.09765625 -0.41796875
0.232142850756645203 -0.171875 -0.37109375
-0.142857164144515991 -0.11328125 -0.41015625
0.383928567171096802 -0.13671875 -0.246093735098838806
-0.357142865657806396 0.13671875 -0.3046875
-0.214285716414451599 -0.09375 -0.41015625
0.428571432828903198 -0.1171875 -0.16015625
0.133928567171096802 -0.17578125 -0.40234375
0.419642865657806396 -0.078125 -0.156250014901161194
0.348214298486709595 -0.125 -0.2578125
-0.0446428544819355011 -0.125000014901161194 -0.40625
-0.357142895460128784 0.0859375 -0.37109375
0.0535714291036128998 -0.1328125 -0.42578125
0.383928567171096802 -0.113281257450580597 -0.24609375
-0.0357142873108386993 -0.125 -0.4296875
0.0892857164144515991 -0.16015625 -0.41796875
-0.366071432828903198 0.0234375 -0.40234375
0.0535714253783226013 -0.15234375 -0.42578125
0.303571403026580811 -0.145987421274185181 -0.341334402561187744
0.401785701513290405 -0.109375 -0.23046875
-0.0714285746216773987 -0.11328125 -0.41015625
0.25 -0.171875 -0.3671875
-0.357142865657806396 0.01171875 -0.390625
0.446425646543502808 -0.0546874962747097015 -0.113280393183231354
-0.0982142910361289978 -0.109374992549419403 -0.410156220197677612
0.0714285746216773987 -0.148437485098838806 -0.43359375
0.125 -0.15625 -0.42578125
0.223214283585548401 -0.15625 -0.39453125
-0.0357142873108386993 -0.12890625 -0.40625
0.196428567171096802 -0.152343764901161194 -0.3984375
0.419642865657806396 -0.113500989973545074 -0.189866140484809875
0.0714285746216773987 -0.140625014901161194 -0.43359375
0.1071428582072258 -0.16015625 -0.410156279802322388
0.151785716414451599 -0.1484375 -0.4140625
0.348214298486709595 -0.125 -0.265625
0.410714298486709595 -0.12109375 -0.19921875
0.178571432828903198 -0.156250014901161194 -0.4140625
0.0625 -0.15234375 -0.41796875
-0.0803571343421936035 -0.10546875 -0.4140625
-0.196428567171096802 -0.09375 -0.43359375
0.25 -0.15234375 -0.37890625
-0.205357149243354797 -0.0859375 -0.421875029802322388
0.348214298486709595 -0.1484375 -0.31640625
-0.0446428582072257996 -0.109375 -0.421875
0.348214268684387207 -0.152343735098838806 -0.304687470197677612
-0.0625 -0.12890625 -0.421875
0.330357134342193604 -0.16015625 -0.3046875
0.330357134342193604 -0.15625 -0.2890625
-0.375 0.08203125 -0.374784648418426514
0.0803571417927742004 -0.160156220197677612 -0.42578125
-0.357142835855484009 0.113281257450580597 -0.3515625
-0.0357142835855484009 -0.1328125 -0.421875029802322388
-0.3125 -0.06640625 -0.38671875
-0.0535714291036128998 -0.1328125 -0.4140625
0.294642895460128784 -0.1640625 -0.35546875
-0.125 -0.109375 -0.43359375
0.0982142835855484009 -0.15234375 -0.425781220197677612
-0.0625 -0.113281264901161194 -0.41015625
0.205357149243354797 -0.171875 -0.3984375
0.0982142835855484009 -0.14453125 -0.41015625
0.276785671710968018 -0.15234375 -0.343749970197677612
-0.214285716414451599 -0.09765625 -0.41015625
0.383928567171096802 -0.11680825799703598 -0.206308871507644653
0.375000029802322388 -0.140625 -0.263020813465118408
-0.375000029802322388 0.08984375 -0.363281220197677612
-0.1875 -0.0976562425494194031 -0.41796875
-0.205357149243354797 -0.1015625 -0.41015625
-0.205357149243354797 -0.10546875 -0.41015625
0.00892857089638710022 -0.140625 -0.4296875
0.258928567171096802 -0.171875 -0.36328125
-0.25 -0.0859375 -0.41015625
-0.241071432828903198 -0.1015625 -0.41796875
-0.2946338951587677 -0.078125 -0.410156279802322388
0.0714285820722579956 -0.1484375 -0.43359375
0.419642895460128784 -0.113881766796112061 -0.204365819692611694
-0.160714268684387207 -0.109375 -0.43359375
0.446428567171096802 -0.0625 -0.125
0.0714285597205162048 -0.13671875 -0.41015625
0.1071428582072258 -0.16015625 -0.421875
0.0625 -0.13671875 -0.43359375
0.357142865657806396 -0.12109375 -0.23828125
0.0625 -0.140625 -0.4375
-0.0803571417927742004 -0.11328125 -0.42578125
0.392857134342193604 -0.09375 -0.203125
-0.0446428582072257996 -0.11328125 -0.41015625
3.83963433964185086e-12 -0.125 -0.421875
-0.116071432828903198 -0.101562485098838806 -0.4140625
0.1071428582072258 -0.15625 -0.40625
-0.0625 -0.12109375 -0.4296875
-0.0357142873108386993 -0.125 -0.4296875
-0.0803571417927742004 -0.109375 -0.42578125
-0.383928567171096802 0.02734375 -0.402343690395355225
-0.107142865657806396 -0.121093757450580597 -0.41796875
-0.125 -0.117187507450580597 -0.41796875
-0.241071432828903198 -0.1015625 -0.4140625
-0.321428596973419189 -0.0468749962747097015 -0.402343779802322388
0.0625 -0.15234375 -0.42578125
0.339285701513290405 -0.1328125 -0.273437529802322388
-0.00892857182770967484 -0.132812485098838806 -0.41015625
0.383928567171096802 -0.115167953073978424 -0.197184503078460693
0.0535714291036128998 -0.1484375 -0.43359375
-0.133928552269935608 -0.1015625 -0.41796875
-0.0982142835855484009 -0.119791664183139801 -0.41015625
0.1071428582072258 -0.16015625 -0.421875
-0.214285716414451599 -0.0859375 -0.4140625
0.0446428582072257996 -0.15234375 -0.4375
-0.142857149243354797 -0.1171875 -0.4140625
-0.0267857145518064499 -0.109374992549419403 -0.4140625
-0.0625 -0.117187514901161194 -0.4296875
-0.0714285746216773987 -0.10546875 -0.414062529802322388
0.142857149243354797 -0.1640625 -0.406250029802322388
-0.267857134342193604 -0.0820312425494194031 -0.402343720197677612
-0.392857134342193604 0.046875 -0.39453125
0.0892857164144515991 -0.15234375 -0.40625
0.178571447730064392 -0.171875 -0.390625
-0.1875 -0.08984375 -0.429687529802322388
-0.267857134342193604 -0.07421875 -0.4140625
-0.366071432828903198 0.12109375 -0.33984375
-0.00892857182770967484 -0.1171875 -0.4140625
0.419642835855484009 -0.0839031636714935303 -0.132812514901161194
0.392857134342193604 -0.129971593618392944 -0.252840936183929443
0.374999940395355225 -0.140625 -0.25
0.223214283585548401 -0.171875014901161194 -0.38671875
0.428571403026580811 -0.0781250074505805969 -0.15234375
0.241071432828903198 -0.171875 -0.36328125
0.303571432828903198 -0.14453125 -0.31640625
0.241071432828903198 -0.15625 -0.36328125
0.339285731315612793 -0.1328125 -0.265625
0.0714285746216773987 -0.1484375 -0.41015625
-0.0625 -0.10546875 -0.421875
0.116071425378322601 -0.148437514901161194 -0.42578125
0.392857134342193604 -0.09375 -0.20703125
0.125 -0.1796875 -0.40234375
0.357142806053161621 -0.1171875 -0.2421875
0.410714268684387207 -0.10546875 -0.16015625
0.0803571417927742004 -0.16015625 -0.42578125
0.0982142835855484009 -0.144531235098838806 -0.41015625
0.23214276134967804 -0.15234375 -0.37109375
-0.196428552269935608 -0.109375 -0.41796875
0.241071432828903198 -0.15234375 -0.37890625
0.223214283585548401 -0.160156264901161194 -0.37890625
0.25 -0.15625 -0.38671875
-0.142857149243354797 -0.09765625 -0.43359375
-0.294642865657806396 -0.08203125 -0.39453125
-0.267857134342193604 -0.09375 -0.402343779802322388
-0.0178571436554193497 -0.1328125 -0.421874970197677612
-0.0267857164144515991 -0.125 -0.41015625
-0.366071432828903198 0.01171875 -0.40625
0.339285701513290405 -0.12890625 -0.296875
0.169642835855484009 -0.16796875 -0.417968779802322388
-0.392857134342193604 0.0390624962747097015 -0.40234375
0.411395132541656494 -0.110526442527770996 -0.171665191650390625
-0.401785701513290405 0.05078125 -0.3890705406665802
-0.366071432828903198 0.1171875 -0.3515625
-0.374999970197677612 0.0859375 -0.368134677410125732
0.142857149243354797 -0.171875 -0.398437440395355225
-0.348214328289031982 -0.0182291679084300995 -0.40234375
0.0535714291036128998 -0.13671875 -0.4375
1.06175962119592349e-12 -0.140625 -0.44140625
0.160714283585548401 -0.1640625 -0.390625
0.267857134342193604 -0.171875 -0.35546875
-0.205357149243354797 -0.109375 -0.42578125
0.267857134342193604 -0.15625 -0.37109375
0.419642865657806396 -0.08984375 -0.1875
-0.116071425378322601 -0.09765625 -0.42578125
0.455357164144515991 -0.0859375 -0.128906264901161194
-0.375 0.140625 -0.292968720197677612
-0.116071425378322601 -0.10546875 -0.43359375
0.116071425378322601 -0.1484375 -0.42578125
-0.0625 -0.117187492549419403 -0.4296875
-0.1071428582072258 -0.12109375 -0.41796875
0.330357134342193604 -0.15625 -0.328125
0.401785701513290405 -0.09375 -0.2109375
-0.0982142835855484009 -0.1015625 -0.41796875
-0.142857149243354797 -0.1171875 -0.421875
0.357142865657806396 -0.140625 -0.253906279802322388
-0.0178571436554193497 -0.12109375 -0.42578125
-0.357142865657806396 0.128906235098838806 -0.324218779802322388
-0.089285723865032196 -0.125 -0.41796875
-0.125 -0.101562507450580597 -0.414062470197677612
-0.375000029802322388 0.125 -0.32421875
0.303571432828903198 -0.14453125 -0.3046875
-0.383928567171096802 0.05859375 -0.375000029802322388
0.142857149243354797 -0.17578125 -0.40234375
0.401785761117935181 -0.112499997019767761 -0.187499985098838806
0.0982142910361289978 -0.15234375 -0.425781220197677612
-0.0892857164144515991 -0.109375 -0.43359375
0.169642850756645203 -0.1484375 -0.40625
0.25 -0.171875 -0.3671875
0.464285880327224731 -0.0119697023183107376 -0.0976413115859031677
-0.196428567171096802 -0.0859375 -0.421875
0.125 -0.15234375 -0.410156220197677612
0.169642850756645203 -0.1484375 -0.40625
0.125 -0.16796875 -0.41015625
0.142857134342193604 -0.167968735098838806 -0.41796875
0.321428567171096802 -0.1484375 -0.3359375
0.285714238882064819 -0.16796875 -0.33203125
0.464279502630233765 -0.0703141540288925171 -0.0976497530937194824
0.464285701513290405 -0.0822414606809616089 -0.105499424040317535
-0.294642865657806396 -0.078125 -0.39453125
-0.133928537368774414 -0.101562507450580597 -0.417968779802322388
0.401785671710968018 -0.125 -0.23828125
-0.0446428582072257996 -0.109375 -0.42578125
-0.125 -0.11328125 -0.43359375
-0.383928567171096802 0.01953125 -0.390625
-0.366071462631225586 -9.77043099203989129e-13 -0.410156220197677612
-0.116071425378322601 -0.1171875 -0.429687529802322388
0.116071417927742004 -0.15625 -0.40625
0.303571462631225586 -0.1484375 -0.30078125
-0.375 0.10546875 -0.3515625
0.258928567171096802 -0.1640625 -0.37890625
0.25 -0.171875 -0.35546875
-0.0714285746216773987 -0.10546875 -0.4140625
0.133928567171096802 -0.1640625 -0.40625
0.303571403026580811 -0.140625 -0.30859375
0.0714285820722579956 -0.15625 -0.421875
0.446428567171096802 -0.09765625 -0.1328125
-0.375 0.0820312574505805969 -0.3828125
-0.366071432828903198 0.09375 -0.37890625
1.05571286304964596e-13 -0.140625 -0.43359375
0.0892857164144515991 -0.16015625 -0.4140625
0.0714285597205162048 -0.136718779802322388 -0.412071675062179565
-0.142857149243354797 -0.11328125 -0.41015625
0.446428537368774414 -0.0312500037252902985 -0.0927734300494194031
-0.0892857164144515991 -0.11328125 -0.41015625
-0.044642861932516098 -0.125 -0.406249970197677612
-0.357142865657806396 0.115885421633720398 -0.33984375
0.0267857145518064499 -0.1328125 -0.421875
-0.0892857164144515991 -0.125 -0.41796875
-0.0446428582072257996 -0.12109375 -0.4296875
0.303571432828903198 -0.140625 -0.3359375
-0.0178571436554193497 -0.13671875 -0.41796875
-0.160714283585548401 -0.101562485098838806 -0.43359375
-0.321428567171096802 -0.0664062425494194031 -0.395833313465118408
-0.0446428544819355011 -0.1328125 -0.417968779802322388
0.410714328289031982 -0.0859375 -0.167968735098838806
0.1071428582072258 -0.1640625 -0.417968779802322388
-0.0803571417927742004 -0.12109375 -0.4296875
0.267857134342193604 -0.16015625 -0.343750029802322388
-0.196428567171096802 -0.0859375 -0.421875
0.330357134342193604 -0.15625 -0.2890625
-0.178571432828903198 -0.1015625 -0.4140625
-0.0446428582072257996 -0.109375 -0.421875
0.232142850756645203 -0.164062529802322388 -0.390625
0.357142865657806396 -0.12890625 -0.296875
-0.196428567171096802 -0.10546875 -0.43359375
0.1071428582072258 -0.15234375 -0.42578125
0.214285716414451599 -0.164062604308128357 -0.3671875
0.375 -0.140625 -0.25390625
0.446428567171096802 -0.0950321182608604431 -0.15625
0.357142865657806396 -0.125 -0.2890625
-0.366071432828903198 0.109375 -0.33203125
0.258928567171096802 -0.1640625 -0.37890625
0.410714268684387207 -0.121093742549419403 -0.211495518684387207
0.321428567171096802 -0.14453125 -0.28125
0.0535714291036128998 -0.154150053858757019 -0.421547502279281616
-0.116071425378322601 -0.09765625 -0.421875
-0.0803571417927742004 -0.121093742549419403 -0.4296875
0.339285731315612793 -0.14453125 -0.265624970197677612
0.339285701513290405 -0.160156235098838806 -0.30859375
0.0267857164144515991 -0.13671875 -0.425781220197677612
-0.375000029802322388 0.078125 -0.3671875
-0.366071462631225586 0.00390625 -0.39453125
0.142857149243354797 -0.15234375 -0.40234375
-0.151785716414451599 -0.117187507450580597 -0.42578125
0.357142865657806396 -0.15234375 -0.26953125
-0.196428567171096802 -0.10546875 -0.4140625
-0.116071425378322601 -0.101562492549419403 -0.4140625
0.160714283585548401 -0.171875 -0.41015625
0.330357134342193604 -0.1328125 -0.285156279802322388
-0.116071425378322601 -0.101562492549419403 -0.414062559604644775
-0.357142865657806396 0.121093742549419403 -0.328125029802322388
-0.375 0.140625 -0.296875
-0.125 -0.1171875 -0.4140625
-0.125 -0.1171875 -0.42578125
-0.366071462631225586 0.125000014901161194 -0.3125
0.124999992549419403 -0.171875 -0.402343720197677612
0.142857149243354797 -0.15234375 -0.41796875
0.0892857015132904053 -0.1484375 -0.42578125
0.455357134342193604 -0.03125 -0.10546875
0.232142850756645203 -0.160156235098838806 -0.390625
-0.0714285746216773987 -0.12890625 -0.414062529802322388
-0.339285701513290405 -0.0234375018626451492 -0.38671875
0.0714285746216773987 -0.14453125 -0.4140625
-0.133928567171096802 -0.1171875 -0.421875
-0.339285701513290405 -0.0146484365686774254 -0.39453125
0.366146951913833618 -0.123464189469814301 -0.22985115647315979
-0.0714285671710968018 -0.12890625 -0.417968720197677612
0.366071432828903198 -0.109375 -0.21875
-0.0625 -0.109375 -0.4140625
-0.151785701513290405 -0.1171875 -0.42578125
0.142857134342193604 -0.1640625 -0.40625
-0.116071425378322601 -0.1171875 -0.43359375
0.0535714291036128998 -0.1328125 -0.42578125
0.267857164144515991 -0.160156235098838806 -0.378906309604644775
0.00892857182770967484 -0.125 -0.429687470197677612
0.133928582072257996 -0.1484375 -0.42578125
-0.366071432828903198 0.10546875 -0.3359375
-0.366071432828903198 0.0898437574505805969 -0.37890625
0.187499985098838806 -0.1640625 -0.378906279802322388
0.25 -0.171875 -0.363281279802322388
-0.357142865657806396 0.08203125 -0.375
-0.366071432828903198 0.02734375 -0.38671875
-0.383928537368774414 0.0585937462747097015 -0.3896484375
0.0446428582072257996 -0.15234375 -0.4375
-0.392857134342193604 0.046875 -0.3984375
0.330357134342193604 -0.144531294703483582 -0.328125
0.178571432828903198 -0.16015625 -0.4140625
0.205357149243354797 -0.171875014901161194 -0.3984375
-0.375 0.0546875 -0.3984375
0.330357134342193604 -0.160156264901161194 -0.328125
0.25 -0.171875 -0.36328125
0.214285716414451599 -0.171875 -0.375000059604644775
-0.142857149243354797 -0.11328125 -0.41015625
-0.312499970197677612 -0.06640625 -0.402343720197677612
-0.375 0.00390625 -0.3984375
-0.0714285820722579956 -0.12109375 -0.4296875
0.178571432828903198 -0.171875014901161194 -0.410156279802322388
0.205357149243354797 -0.15625 -0.37890625
0.401785701513290405 -0.1171875 -0.23828125
-0.0982142835855484009 -0.12109375 -0.42578125
0.330357939004898071 -0.164063245058059692 -0.30859375
-0.339285701513290405 -0.01953125 -0.3984375
-0.375 0.12109375 -0.3125
-0.366071432828903198 0.0781249925494194031 -0.374999970197677612
-0.339285701513290405 -0.03125 -0.394531279802322388
0.0625 -0.15234375 -0.417968720197677612
0.142857149243354797 -0.17578125 -0.40234375
0.366071432828903198 -0.121093757450580597 -0.21875
0.366071462631225586 -0.140625014901161194 -0.24609375
-0.366071432828903198 0.078125 -0.37890625
0.312500059604644775 -0.16796875 -0.3203125
0.401785731315612793 -0.0898437574505805969 -0.1640625
-0.321428567171096802 -0.0625 -0.40625
-0.00892857089638710022 -0.125 -0.429687559604644775
-0.133928567171096802 -0.1171875 -0.421875
-0.125 -0.1171875 -0.42578125
-0.0267857164144515991 -0.12109375 -0.42578125
0.00892857182770967484 -0.12890625 -0.421875
-0.0892857462167739868 -0.109375007450580597 -0.433593600988388062
0.375 -0.13671875 -0.2421875
0.0446428582072257996 -0.140625 -0.4375
0.321428596973419189 -0.160156264901161194 -0.33984375
-0.339285671710968018 -0.0546875 -0.395312488079071045
0.1071428582072258 -0.14453125 -0.41015625
0.205357149243354797 -0.17578125 -0.38671875
-0.0446428582072257996 -0.12109375 -0.40625
0.25 -0.171875 -0.37109375
-0.196428567171096802 -0.10546875 -0.4140625
0.428571432828903198 -0.09765625 -0.180683985352516174
-0.392857134342193604 0.05078125 -0.390625
0.455357134342193604 -0.08984375 -0.1171875
-0.392857104539871216 0.03125 -0.39453125
0.214285716414451599 -0.15625 -0.390625
-0.375 0.121093742549419403 -0.3203125
-0.285714268684387207 -0.0703125 -0.40234375
0.241071447730064392 -0.16796875 -0.386718720197677612
0.00892857089638710022 -0.132812514901161194 -0.421875
-0.366071403026580811 0.0546875 -0.394531279802322388
0.401785701513290405 -0.08984375 -0.16796875
0.455357134342193604 -0.0859375 -0.1328125
0.401785701513290405 -0.0859375 -0.17578125
-0.0892857164144515991 -0.12109375 -0.4296875
-0.383928567171096802 0.0703125 -0.394531220197677612
-0.214285701513290405 -0.109375 -0.42578125
-0.285714298486709595 -0.0898437574505805969 -0.402343720197677612
0.196428567171096802 -0.15234375 -0.390625
-0.116071425378322601 -0.101562492549419403 -0.4140625
-0.392857134342193604 0.0703125 -0.375000059604644775
-0.366071432828903198 -0.00390625 -0.40625
-0.258928537368774414 -0.08984375 -0.40625
0.419642865657806396 -0.0781250149011611938 -0.14453125
-0.294642865657806396 -0.07421875 -0.406250029802322388
0.366071462631225586 -0.113281257450580597 -0.247070282697677612
-0.375 0.125 -0.3046875
0.446428537368774414 -0.08984375 -0.153320327401161194
-0.196428567171096802 -0.09765625 -0.43359375
-0.383928537368774414 0.0468749962747097015 -0.378906220197677612
0.401785731315612793 -0.10546875 -0.226562514901161194
-0.0535714291036128998 -0.109374985098838806 -0.41796875
-0.241071447730064392 -0.1015625 -0.41796875
0.401785701513290405 -0.0859374925494194031 -0.191406235098838806
-0.258928567171096802 -0.08203125 -0.4140625
-0.205357149243354797 -0.105468757450580597 -0.41015625
-0.160714283585548401 -0.1171875 -0.421875
-0.0357142910361289978 -0.12890625 -0.42578125
0.4375 -0.0859374925494194031 -0.161132797598838806
0.428571432828903198 -0.08984375 -0.121093742549419403
-0.133928567171096802 -0.101562507450580597 -0.41796875
0.00892857182770967484 -0.1328125 -0.421875
-0.348214268684387207 -0.02734375 -0.390625
-0.160714283585548401 -0.11328125 -0.4296875
-0.232142850756645203 -0.08984375 -0.42578125
0.330357134342193604 -0.14453125 -0.328125
-0.232142865657806396 -0.0898437574505805969 -0.414062470197677612
0.0803571417927742004 -0.15625 -0.4296875
0.178571432828903198 -0.15234375 -0.390625
0.0892857164144515991 -0.1640625 -0.41796875
-0.348214298486709595 0.0078125 -0.40234375
0.464285701513290405 -0.0673632249236106873 -0.109403401613235474
-0.160714283585548401 -0.10546875 -0.43359375
-0.214285716414451599 -0.08984375 -0.4140625
-1.17195554476257069e-12 -0.13671875 -0.44140625
-0.1875 -0.09375 -0.4140625
-0.0446428582072257996 -0.109375 -0.4140625
1.15647129459578446e-12 -0.125 -0.437500029802322388
0.419642865657806396 -0.078125 -0.140624955296516418
-0.366071462631225586 0.12109375 -0.33203125
0.0357142873108386993 -0.1484375 -0.4296875
0.160714283585548401 -0.15234375 -0.41015625
0.223214283585548401 -0.16015625 -0.37109375
-0.0267857145518064499 -0.12109375 -0.42578125
-0.375 0.07421875 -0.390625
0.160714283585548401 -0.167968735098838806 -0.39453125
0.330357134342193604 -0.15234375 -0.281249970197677612
0.357142865657806396 -0.152343764901161194 -0.26953125
-0.187500014901161194 -0.109375 -0.42578125
-0.0535714291036128998 -0.12109375 -0.41015625
-0.125000029802322388 -0.10221390426158905 -0.433222800493240356
0.25 -0.15234375 -0.3671875
-0.00892857182770967484 -0.1328125 -0.425781220197677612
-0.0714285746216773987 -0.10546875 -0.4140625
0.196428567171096802 -0.1484375 -0.3984375
-0.0625 -0.12890625 -0.421875
0.285714387893676758 -0.148437514901161194 -0.343750059604644775
-0.375 0.03125 -0.40625
-0.330357134342193604 -0.0312499981373548508 -0.386718779802322388
0.410714298486709595 -0.08203125 -0.144531264901161194
-0.375000029802322388 0.0742187574505805969 -0.390625
0.258928567171096802 -0.171875 -0.3671875
0.4375 -0.0703124925494194031 -0.140624985098838806
-0.285714298486709595 -0.0859375 -0.40625
-0.0178571436554193497 -0.1328125 -0.4140625
0.223214283585548401 -0.171875 -0.3828125
0.348214298486709595 -0.12890625 -0.253906309604644775
0.1071428582072258 -0.144531264901161194 -0.421875029802322388
-0.321428567171096802 -0.0716145932674407959 -0.40234375
0.0178571436554193497 -0.125 -0.4375
-4.01370516683874357e-12 -0.140625 -0.44140625
-0.178571417927742004 -0.09765625 -0.4140625
-0.169642850756645203 -0.09375 -0.4296875
0.116071425378322601 -0.15234375 -0.40625
-0.098214276134967804 -0.12109375 -0.4296875
0.142857149243354797 -0.16796875 -0.4140625
0.410714328289031982 -0.09765625 -0.1484375
0.241071432828903198 -0.16796875 -0.37890625
0.151785701513290405 -0.16015625 -0.421875
-0.375 0.0664062350988388062 -0.371093779802322388
-0.044642861932516098 -0.125 -0.40625
-0.0535714291036128998 -0.11328125 -0.41015625
0.0446428544819355011 -0.15234375 -0.4375
-0.366071432828903198 0.140624985098838806 -0.296875
0.1875 -0.171875014901161194 -0.390625
0.348214298486709595 -0.148437514901161194 -0.269531220197677612
0.446428596973419189 -0.09375 -0.1328125
0.392859697341918945 -0.109375834465026855 -0.191405236721038818
0.232142850756645203 -0.15625 -0.390625
-0.375 0.132812529802322388 -0.30078125
0.383928537368774414 -0.12109375 -0.218750014901161194
0.0625 -0.13671875 -0.4296875
-0.151785716414451599 -0.09765625 -0.4140625
5.98416390225342543e-13 -0.1328125 -0.41796875
-0.125 -0.10546875 -0.41015625
-0.214285716414451599 -0.09765625 -0.41015625
-0.267857134342193604 -0.09765625 -0.40625
0.1071428582072258 -0.15234375 -0.42578125
-0.267857134342193604 -0.08203125 -0.41796875
-0.366071432828903198 0.0390625 -0.390624970197677612
-0.339593201875686646 -0.0091107543557882309 -0.402108222246170044
0.330357164144515991 -0.15625 -0.2890625
0.366071432828903198 -0.144531264901161194 -0.277343779802322388
0.0803571417927742004 -0.15625 -0.41796875
0.419642865657806396 -0.117045804858207703 -0.196709036827087402
0.285714298486709595 -0.16796875 -0.3515625
-0.267857134342193604 -0.08984375 -0.40625
-0.348214298486709595 -1.4712824058030205e-12 -0.39453125
-0.0357142910361289978 -0.1328125 -0.421875
-0.142857149243354797 -0.117187507450580597 -0.421875
-0.0535714291036128998 -0.125 -0.4296875
0.419642865657806396 -0.08203125 -0.162760436534881592
-0.366071432828903198 0.140625 -0.30078125
0.392828434705734253 -0.0976562723517417908 -0.195320859551429749
-0.294642895460128784 -0.08203125 -0.3984375
0.294659018516540527 -0.144531279802322388 -0.339843779802322388
-0.294642865657806396 -0.06640625 -0.40234375
0.0892857089638710022 -0.13671875 -0.41796875
-0.383928567171096802 0.03125 -0.38671875
-0.321428626775741577 -0.0429687462747097015 -0.402343779802322388
0.267857134342193604 -0.16796875 -0.371093720197677612
0.125 -0.1640625 -0.40625
0.383928537368774414 -0.125 -0.210937514901161194
0.3125 -0.16796875 -0.3203125
0.214285969734191895 -0.1640625 -0.367187470197677612
-0.214285716414451599 -0.0859375 -0.4140625
-0.383928567171096802 0.0546875 -0.39453125
0.214285716414451599 -0.17578125 -0.38671875
-0.232142850756645203 -0.08984375 -0.42578125
0.276785701513290405 -0.1484375 -0.34765625
-0.107142850756645203 -0.12109375 -0.41796875
-0.357142835855484009 -0.0289056301116943359 -0.397363245487213135
-0.357142865657806396 -0.00390625 -0.386718720197677612
0.428571432828903198 -0.1171875 -0.164062514901161194
0.0178571436554193497 -0.13671875 -0.42578125
-0.214285701513290405 -0.09765625 -0.41015625
-0.00892857182770967484 -0.12109375 -0.41015625
-0.383928567171096802 0.0546875 -0.39453125
-0.258928567171096802 -0.08984375 -0.40625
0.330357134342193604 -0.136718764901161194 -0.31640625
0.446428507566452026 -0.078125 -0.101562514901161194
-0.0714285746216773987 -0.12109375 -0.4296875
-0.383928567171096802 0.0703125 -0.37890625
0.116071425378322601 -0.1484375 -0.42578125
0.276785701513290405 -0.15234375 -0.35546875
-0.241071417927742004 -0.0859375 -0.421874791383743286
0.0625 -0.14453125 -0.417968779802322388
-0.0178571436554193497 -0.12109375 -0.42578125
0.258941382169723511 -0.15625 -0.37890625
0.116071425378322601 -0.1484375 -0.42578125
0.0714285746216773987 -0.14453125 -0.4140625
0.321428537368774414 -0.143229171633720398 -0.285156279802322388
0.428571432828903198 -0.0651041716337203979 -0.109374992549419403
0.0178571436554193497 -0.125 -0.4375
0.0357142947614192963 -0.12890625 -0.4296875
-0.383928537368774414 0.12890625 -0.31640625
-0.0714285820722579956 -0.109375 -0.42578125
0.401785701513290405 -0.12890625 -0.21484375
0.125 -0.15625 -0.42578125
0.339285671710968018 -0.15625 -0.32421875
-0.330357134342193604 -0.046875 -0.406250029802322388
-0.294642865657806396 -0.0742187574505805969 -0.394531220197677612
0.0535714291036128998 -0.13070930540561676 -0.422758042812347412
0.00892857182770967484 -0.140625 -0.42578125
-0.1875 -0.10546875 -0.4375
0.232142850756645203 -0.167968764901161194 -0.3671875
0.392857134342193604 -0.09375 -0.203125
-0.0267857145518064499 -0.12890625 -0.42578125
0.428571432828903198 -0.109375007450580597 -0.15625
0.125 -0.171875238418579102 -0.40625
0.419642865657806396 -0.0859375 -0.124999992549419403
-0.383928567171096802 0.12890625 -0.31640625
0.339285701513290405 -0.12890625 -0.30078125
0.0982142835855484009 -0.16015625 -0.421875
-0.0803571417927742004 -0.124999985098838806 -0.42578125
0.178571432828903198 -0.171875 -0.4140625
0.401785671710968018 -0.09375 -0.199218735098838806
0.267941445112228394 -0.16796875 -0.350275129079818726
-0.0892857164144515991 -0.113281242549419403 -0.41015625
0.0267857145518064499 -0.1328125 -0.44140625
-0.196428567171096802 -0.109375 -0.42578125
-0.1875 -0.10546875 -0.4375
0.151785746216773987 -0.15234375 -0.40234375
-0.142857149243354797 -0.09765625 -0.43359375
0.294642895460128784 -0.1484375 -0.32421875
-0.214285716414451599 -0.1015625 -0.41015625
0.1875 -0.167968720197677612 -0.41015625
0.160714283585548401 -0.1640625 -0.3984375
0.0803571343421936035 -0.15625 -0.4296875
0.196428567171096802 -0.15625 -0.40234375
0.312500029802322388 -0.14453125 -0.29296875
0.142857149243354797 -0.17578125 -0.40234375
-0.0625 -0.10546875 -0.421875
-0.357142865657806396 0.121093757450580597 -0.33984375
-0.375 0.0390625 -0.38671875
0.419642865657806396 -0.08984375 -0.12890625
-0.0625 -0.113281242549419403 -0.41015625
-0.375 0.0546875 -0.3984375
0.142857149243354797 -0.15234375 -0.402343720197677612
0.383928567171096802 -0.12485746294260025 -0.203144177794456482
-0.0803571268916130066 -0.105468757450580597 -0.421875
-0.339285671710968018 -0.01171875 -0.390625
0.401785701513290405 -0.08984375 -0.1953125
-0.178571432828903198 -0.08984375 -0.425781220197677612
-0.0267857145518064499 -0.12890625 -0.42578125
0.321428596973419189 -0.140625 -0.281250029802322388
0.267857193946838379 -0.164062514901161194 -0.34375
-0.375 0.0429687462747097015 -0.398437470197677612
0.133928567171096802 -0.17578125 -0.41015625
-0.366071432828903198 0.1328125 -0.2890625
0.446428567171096802 -0.0937500149011611938 -0.128906264901161194
0.116071425378322601 -0.16015625 -0.42578125
-0.339285701513290405 -0.0078125 -0.3984375
-0.0446428582072257996 -0.12109375 -0.4296875
-0.214285716414451599 -0.09765625 -0.41015625
-0.392857164144515991 0.06640625 -0.37890625
0.446428596973419189 -0.0195312518626451492 -0.11328125
0.321428596973419189 -0.15234375 -0.335937470197677612
0.401785701513290405 -0.12890625 -0.2265625
-0.339285731315612793 -0.0585937462747097015 -0.390625029802322388
-0.125 -0.1171875 -0.4140625
0.312499970197677612 -0.167968735098838806 -0.33203125
-0.0178571436554193497 -0.11328125 -0.41796875
-0.00892857182770967484 -0.13671875 -0.421875
0.0267857145518064499 -0.140625 -0.42578125
0.348214298486709595 -0.125 -0.2890625
-0.151785716414451599 -0.1015625 -0.4140625
-0.098214276134967804 -0.1015625 -0.41796875
0.196428567171096802 -0.15625 -0.40625
-0.178571432828903198 -0.0977625995874404907 -0.43359375
-0.383928567171096802 0.0234375 -0.4033203125
-0.366071432828903198 0.08984375 -0.359375
-0.366071432828903198 0.0859374925494194031 -0.363281279802322388
-0.24107147753238678 -0.0859374627470970154 -0.417968541383743286
-0.0178571436554193497 -0.12109375 -0.40625
0.0625 -0.140625 -0.4140625
-0.366071403026580811 0.125 -0.3125
-0.348214298486709595 0.00390625 -0.40234375
-0.0446428582072257996 -0.125 -0.4296875
-0.357142835855484009 0.0937500074505805969 -0.375
0.0714285746216773987 -0.13671875 -0.421875
-0.276785701513290405 -0.0859375074505805969 -0.40625
0.00892857182770967484 -0.13671875 -0.44140625
0.258928567171096802 -0.15234375 -0.37109375
0.0446428582072257996 -0.12890625 -0.4296875
0.223214283585548401 -0.16796875 -0.39453125
-4.34334670009264845e-13 -0.1328125 -0.41796875
0.464285701513290405 -0.0690101310610771179 -0.114582724869251251
-0.1875 -0.109375 -0.421875
0.374999970197677612 -0.140625 -0.2578125
-0.0446428582072257996 -0.12890625 -0.4296875
-0.0178571436554193497 -0.132812514901161194 -0.4140625
-0.0535714253783226013 -0.1328125 -0.4140625
0.0178571436554193497 -0.125 -0.436787247657775879
0.0803571417927742004 -0.15234375 -0.4296875
0.160714283585548401 -0.152343779802322388 -0.3984375
-0.0625 -0.12109375 -0.4296875
-0.383928567171096802 0.0703125 -0.39453125
-0.375 0.06640625 -0.39453125
-0.116071425378322601 -0.11328125 -0.433593779802322388
0.205357149243354797 -0.16015625 -0.375
0.339285701513290405 -0.1484375 -0.3203125
-0.205357164144515991 -0.0859375 -0.421875
-0.0625 -0.12109375 -0.4296875
0.357142865657806396 -0.136718735098838806 -0.246093764901161194
0.1875 -0.15234375 -0.38671875
0.464285790920257568 -0.0781250149011611938 -0.128906264901161194
-0.196428567171096802 -0.0859375 -0.41796875
-0.375 0.07421875 -0.390625
0.357142865657806396 -0.1328125 -0.300781279802322388
0.375 -0.109375 -0.25
-0.241071432828903198 -0.09765625 -0.410156220197677612
0.196428567171096802 -0.15234375 -0.390625
-0.348214298486709595 -0.0429687462747097015 -0.394531220197677612
0.303571432828903198 -0.1640625 -0.3359375
1.06993190349125022e-13 -0.13671875 -0.44140625
0.187500029802322388 -0.15234375 -0.38671875
0.1875 -0.15625 -0.40625
0.419642895460128784 -0.0791015550494194031 -0.1201171875
0.321428567171096802 -0.1328125 -0.3046875
-0.357142835855484009 0.128906264901161194 -0.3125
0.133928567171096802 -0.15234375 -0.40234375
-0.196428567171096802 -0.1015625 -0.4140625
0.410714268684387207 -0.1171875 -0.191406220197677612
0.1071428582072258 -0.144531294703483582 -0.421875
-0.357142865657806396 0.08984375 -0.375
-0.0178571436554193497 -0.125 -0.4296875
0.446428596973419189 -0.0156250018626451492 -0.11328125
0.464285731315612793 -0.0694366097450256348 -0.105466000735759735
0.339285701513290405 -0.140625 -0.31640625
-0.366071432828903198 0.078125 -0.375
0.178571432828903198 -0.171875 -0.402343779802322388
0.366071462631225586 -0.1171875 -0.269531279802322388
-0.25 -0.0859375149011611938 -0.41015625
0.00892857182770967484 -0.125 -0.4296875
0.321428537368774414 -0.156249985098838806 -0.33984375
-0.339285701513290405 -0.0185546875 -0.390625
0.160714283585548401 -0.16796875 -0.39453125
0.401925384998321533 -0.087239585816860199 -0.183593764901161194
0.25 -0.16796875 -0.3515625
-0.0535714291036128998 -0.109375 -0.42578125
0.178571432828903198 -0.171875 -0.40625
0.107142865657806396 -0.1484375 -0.425781279802322388
-0.0357142873108386993 -0.1328125 -0.421875
-0.267857134342193604 -0.08203125 -0.41796875
-0.196428567171096802 -0.0937500074505805969 -0.43359375
0.455357134342193604 -0.0234375 -0.100585952401161194
0.169642835855484009 -0.15234375 -0.414062529802322388
-0.0446428582072257996 -0.1328125 -0.41796875
0.151785716414451599 -0.1640625 -0.41796875
0.214285716414451599 -0.15625 -0.37109375
0.348214298486709595 -0.1328125 -0.30078125
0.160714298486709595 -0.148437485098838806 -0.40625
0.428571432828903198 -0.101678438484668732 -0.18719559907913208
-0.241071432828903198 -0.101562485098838806 -0.41796875
1.04985620891229203e-11 -0.125 -0.421875059604644775
0.383928567171096802 -0.1328125 -0.23828125
0.375 -0.12890625 -0.23046875
-0.375000029802322388 0.125 -0.3046875
0.455357134342193604 -0.0859375 -0.1171875
-0.330357134342193604 -0.046875 -0.38671875
0.205357149243354797 -0.15234375 -0.38671875
-0.0446428582072257996 -0.11328125 -0.41015625
-0.357142865657806396 -3.09563458200656783e-10 -0.40625
0.366071462631225586 -0.148437514901161194 -0.287760406732559204
0.401785701513290405 -0.1015625 -0.167968735098838806
-0.375 0.00390625 -0.3984375
0.339285701513290405 -0.1484375 -0.3203125
0.0357142873108386993 -0.12890625 -0.4375
0.0446428582072257996 -0.14453125 -0.4375
0.446428567171096802 -0.09375 -0.14955514669418335
0.375 -0.1015625 -0.2265625
-0.116071425378322601 -0.117187492549419403 -0.43359375
-0.223214268684387207 -0.101562492549419403 -0.41015625
0.160714283585548401 -0.171875 -0.410156279802322388
-0.0803571417927742004 -0.10546875 -0.4140625
0.339285701513290405 -0.136718764901161194 -0.2734375
0.357142865657806396 -0.132812514901161194 -0.242187514901161194
0.0803571417927742004 -0.16015625 -0.42578125
0.276785701513290405 -0.1484375 -0.34375
0.383928567171096802 -0.120971277356147766 -0.202988296747207642
0.169642865657806396 -0.171875 -0.40625
-0.1875 -0.10546875 -0.41796875
-0.357142865657806396 0.10546875 -0.35546875
-0.401785671710968018 0.0452443957328796387 -0.39830702543258667
0.196428567171096802 -0.171875 -0.39453125
0.205357149243354797 -0.171875 -0.375
-0.1875 -0.0976562574505805969 -0.41796875
0.419642865657806396 -0.1015625 -0.14453125
0.241071447730064392 -0.16015625 -0.390625
-0.00892857182770967484 -0.12109375 -0.410156220197677612
0.116071425378322601 -0.15234375 -0.40625
0.196428567171096802 -0.171875 -0.37890625
0.0625 -0.14453125 -0.43359375
0.0446428582072257996 -0.1328125 -0.4375
-0.375 0.01171875 -0.390624970197677612
0.160714283585548401 -0.171875 -0.41015625
0.125 -0.16796875 -0.41015625
0.258928567171096802 -0.15625 -0.3515625
-0.357142925262451172 0.0859375 -0.374999970197677612
0.455357134342193604 -0.0757812634110450745 -0.140625014901161194
0.375 -0.109375 -0.25
0.160714283585548401 -0.1484375 -0.414062529802322388
0.464285701513290405 -0.0119632557034492493 -0.0933544784784317017
-0.330357164144515991 -0.04296875 -0.390625
0.437500029802322388 -0.0507806390523910522 -0.100098788738250732
0.357142895460128784 -0.140625 -0.29296875
-0.357142835855484009 0.1171875 -0.324218779802322388
-0.366071432828903198 -0.0029296875 -0.390625
-0.339285701513290405 -0.0312523618340492249 -0.38671875
0.142857149243354797 -0.171875 -0.41015625
-0.169642806053161621 -0.11328125 -0.421875
0.375000029802322388 -0.1015625 -0.222655549645423889
-0.00892857182770967484 -0.13671875 -0.421875
0.142857149243354797 -0.16796875 -0.40625
0.178571432828903198 -0.164062485098838806 -0.38671875
-0.258928596973419189 -0.08984375 -0.417968779802322388
-0.0446428544819355011 -0.11328125 -0.42578125
-0.375 0.10546875 -0.33984375
0.303571432828903198 -0.1640625 -0.316406279802322388
-0.00892857182770967484 -0.1171875 -0.421875
0.0357142873108386993 -0.1484375 -0.4296875
-0.366071432828903198 0.0507812537252902985 -0.398437470197677612
0.1875 -0.171875 -0.40234375
-0.366071432828903198 0.09375 -0.359375
-0.357142865657806396 0.03125 -0.40234375
0.0446428582072257996 -0.140625014901161194 -0.4375
0.241071432828903198 -0.1640625 -0.390624910593032837
-0.160714283585548401 -0.10546875 -0.43359375
0.375 -0.105468742549419403 -0.234375
0.375 -0.140625 -0.24609375
0.366071432828903198 -0.14453125 -0.292968720197677612
-0.366071403026580811 0.0185546856373548508 -0.3828125
0.339139848947525024 -0.125 -0.289159923791885376
-0.0982142835855484009 -0.1015625 -0.4140625
0.419642865657806396 -0.109375 -0.1640625
0.392857164144515991 -0.10546875 -0.23046875
0.383928567171096802 -0.124999985098838806 -0.21484375
-0.116071417927742004 -0.1171875 -0.4296875
0.1071428582072258 -0.14453125 -0.421874970197677612
0.330357134342193604 -0.13671875 -0.31640625
0.25 -0.15625 -0.386718720197677612
-0.330357134342193604 -0.0273437481373548508 -0.38671875
0.125 -0.15625 -0.42578125
0.321428567171096802 -0.1328125 -0.29296875
