ply
format ascii 1.0
element vertex 1013
comment vertices
property float x
property float y
property float z
end_header
0.410714298486709595 -0.1171875 0.359375
0.553571403026580811 0.234374970197677612 -0.01171875
0.142857164144515991 0.480468779802322388 0.296874970197677612
-0.589285731315612793 -0.40234375 0.40234375
-0.392857193946838379 -0.4375 0.4140625
-0.633928596973419189 -0.3828125 0.3828125
0.366071432828903198 -0.16796875 0.38303673267364502
0.410714268684387207 -0.0781249925494194031 0.332031220197677612
-0.0803571417927742004 -0.43359375 0.33203125
0.321428567171096802 -0.2109375 0.3203125
0.214285716414451599 -0.328125 0.32421875
0.258928537368774414 -0.305989593267440796 0.338541686534881592
0.446428596973419189 0.3046875 0.132812485098838806
-0.241071447730064392 -0.429687440395355225 0.417968809604644775
0.374999970197677612 -0.1640625 0.375000029802322388
-0.151785686612129211 -0.417968779802322388 0.3828125
-0.642857134342193604 -0.36328125 0.3828125
-0.205357149243354797 -0.4296875 0.4140625
-0.410714328289031982 -0.42578125 0.4140625
0.267857134342193604 -0.30078125 0.33984375
0.535714268684387207 0.21484375 0.136718735098838806
0.544642865657806396 0.24609375 0.0429687462747097015
0.25 0.453125 0.3203125
0.178571417927742004 0.437499970197677612 0.355468690395355225
0.169642850756645203 -0.33203125 0.3359375
-0.401785701513290405 -0.4375 0.41015625
0.142857149243354797 0.44140625 0.3671875
0.419642865657806396 0.319052815437316895 0.148442015051841736
0.142857149243354797 0.44921875 0.3671875
0.00892857182770967484 0.49609375 0.304687529802322388
0.446428567171096802 -0.0807291716337203979 0.348958343267440796
0.303571403026580811 0.439843744039535522 0.257812529802322388
0.357142835855484009 -0.191406235098838806 0.3828125
-0.633928656578063965 -0.359374970197677612 0.37890625
0.214266806840896606 0.464803308248519897 0.296898782253265381
-0.642857193946838379 -0.3125 0.3671875
0.1071428582072258 0.4453125 0.3671875
0.526784658432006836 0.229494750499725342 -0.0224591810256242752
0.366071462631225586 0.37890625 0.17578125
0.0178571436554193497 -0.39453125 0.328125
0.223214268684387207 0.457031279802322388 0.32421875
0.267857134342193604 -0.29296875 0.32421875
0.258928567171096802 -0.27734375 0.3515625
0.553571462631225586 0.277343720197677612 0.07421875
0.366071432828903198 -0.164062485098838806 0.3671875
0.526785731315612793 0.10546875 0.2529296875
0.160714283585548401 0.476562529802322388 0.27734375
0.508928596973419189 0.230468764901161194 -0.01171875
0.491071432828903198 -0.0195312518626451492 0.31640625
0.410075962543487549 0.305978745222091675 0.139770641922950745
0.0267857145518064499 -0.37890625 0.34375
-0.151785716414451599 -0.4140625 0.36328125
0.151785716414451599 0.4921875 0.28125
-9.81732403704249634e-12 0.49609375 0.3046875
0.276785701513290405 -0.281250029802322388 0.328125
0.383928567171096802 0.34765625 0.15234375
0.339285701513290405 -0.191406264901161194 0.3203125
0.178571432828903198 0.44140625 0.34765625
-0.0267857145518064499 -0.4140625 0.33984375
0.455357104539871216 -0.0203124992549419403 0.339843720197677612
0.196428552269935608 0.4453125 0.35546875
0.553571403026580811 0.277343720197677612 0.08203125
0.5 0.0869140550494194031 0.265625
-0.214285716414451599 -0.4296875 0.421874970197677612
-0.0714285746216773987 -0.421875 0.339843690395355225
-0.178571417927742004 -0.417968720197677612 0.40234375
0.0803571417927742004 -0.359375 0.34375
0.178571432828903198 0.46875 0.29296875
0.116071425378322601 -0.36328125 0.3203125
-0.312500059604644775 -0.441406309604644775 0.390625
-0.642857134342193604 -0.2734375 0.37109375
-0.0267857145518064499 -0.40625 0.328125
0.0803571417927742004 0.51171875 0.28125
0.491071432828903198 -0.0130208339542150497 0.33203125
0.330357134342193604 -0.191406235098838806 0.390625
-0.294642865657806396 -0.429687529802322388 0.394531220197677612
-0.455357164144515991 -0.425781279802322388 0.4140625
0.526785731315612793 0.2490234375 0.0146484384313225746
0.375 0.33984375 0.1796875
-0.0982142910361289978 -0.43359375 0.33984375
0.339285731315612793 -0.174894809722900391 0.381346553564071655
-0.178571432828903198 -0.42578125 0.41015625
0.0178571436554193497 -0.38671875 0.34765625
0.562500059604644775 0.23828125 0.0234374981373548508
0.473214298486709595 0.28515625 0.09375
0.392857104539871216 -0.08984375 0.34765625
0.232142850756645203 0.472656220197677612 0.277343720197677612
0.445441722869873047 0.316387653350830078 0.121563196182250977
0.285714298486709595 -0.25390625 0.3671875
0.517857074737548828 0.0625 0.2744140625
-0.205357134342193604 -0.41796875 0.41015625
-0.0446428656578063965 -0.40234375 0.3359375
-0.633928656578063965 -0.37890625 0.375
-0.0357142873108386993 -0.40625 0.33203125
0.0446428582072257996 -0.3828125 0.324218779802322388
-0.321428567171096802 -0.44140625 0.3984375
0.544642865657806396 0.246093720197677612 -0.0234374981373548508
0.25 -0.3046875 0.31640625
0.321428537368774414 0.41796875 0.242187514901161194
0.553596973419189453 0.194341883063316345 0.164287984371185303
0.321428567171096802 0.4296875 0.23046875
0.142857149243354797 0.4765625 0.29296875
0.5 0.2939453125 0.0751953125
-0.366071403026580811 -0.441406279802322388 0.39453125
0.0625 -0.382812529802322388 0.32421875
0.0892857164144515991 -0.3671875 0.34375
0.107142865657806396 -0.34375 0.328125029802322388
0.294642895460128784 0.4560546875 0.2607421875
0.5 0.148437485098838806 0.19921875
0.508928596973419189 0.2890625 0.0703125
-0.633928596973419189 -0.3515625 0.375
0.303571462631225586 -0.265624970197677612 0.34375
0.330357104539871216 -0.210937485098838806 0.390625
5.5899417039650956e-12 -0.38671875 0.34375
0.0714285597205162048 0.5 0.27734375
0.562499880790710449 0.226562514901161194 0.0615237094461917877
0.374999970197677612 -0.140625 0.34375
-0.178571432828903198 -0.4140625 0.41015625
0.214285716414451599 0.453125 0.33203125
-0.5 -0.421875 0.42578125
-0.0357142873108386993 -0.40625 0.33984375
0.5 0.076822914183139801 0.255208343267440796
0.524553596973419189 0.118164032697677612 0.219726547598838806
0.160714283585548401 0.44140625 0.36328125
-0.633928537368774414 -0.3046875 0.371093720197677612
-0.0892857164144515991 -0.437500029802322388 0.33203125
0.0178571436554193497 0.5078125 0.296875
0.5 0.1455078125 0.204101592302322388
0.5 0.0172589495778083801 0.296555370092391968
-0.571428537368774414 -0.41015625 0.4140625
-0.633928596973419189 -0.328125 0.375
0.0357142873108386993 0.5 0.2890625
0.285714298486709595 -0.26953125 0.359375
0.0714285746216773987 -0.3828125 0.3359375
0.535714268684387207 0.234375 -0.0195312537252902985
0.0714285746216773987 -0.3828125 0.33984375
0.285714298486709595 -0.26953125 0.359375
-0.625000059604644775 -0.37890625 0.3828125
0.223214283585548401 0.47265625 0.2734375
0.232142835855484009 0.4453125 0.32421875
-0.651785492897033691 -0.312499940395355225 0.37890625
-0.473214298486709595 -0.433550655841827393 0.421877950429916382
-4.7492257522485648e-12 0.49609375 0.3046875
-0.00892857182770967484 -0.4140625 0.3359375
0.267857164144515991 0.473958313465118408 0.283854156732559204
0.339285701513290405 -0.19921875 0.390625
0.508928596973419189 0.296875 0.101562514901161194
0.151785716414451599 0.48828125 0.26953125
-0.0267857145518064499 -0.4140625 0.33984375
-0.258928507566452026 -0.44140625 0.40625
0.0267857145518064499 0.4921875 0.30078125
0.303571462631225586 0.414062470197677612 0.222656264901161194
0.366071432828903198 -0.175323456525802612 0.381512701511383057
0.107142843306064606 0.4453125 0.3671875
-0.0982142835855484009 -0.42578125 0.339843690395355225
-0.464285671710968018 -0.4296875 0.4296875
0.1071428582072258 0.484375 0.28125
-0.1875 -0.42578125 0.417968779802322388
-0.0178571436554193497 -0.41015625 0.328124970197677612
0.196428567171096802 -0.328125 0.335937470197677612
0.294642865657806396 0.41796875 0.242187485098838806
0.1875 -0.32421875 0.3359375
-0.633928596973419189 -0.3515625 0.371093720197677612
-0.0982142835855484009 -0.417968720197677612 0.324218809604644775
-0.651785731315612793 -0.32421875 0.37109375
0.553571403026580811 0.171628490090370178 0.157984748482704163
0.464285671710968018 -0.0546875 0.34765625
-0.446428567171096802 -0.41796875 0.421875
-0.0267857145518064499 -0.4140625 0.339843720197677612
0.526785731315612793 0.144531264901161194 0.226562485098838806
0.294642865657806396 -0.26171875 0.3671875
0.0982142835855484009 -0.3671875 0.33984375
0.375000029802322388 -0.164062470197677612 0.375
0.196428567171096802 0.44140625 0.34375
0.267857134342193604 -0.296875 0.34375
0.482142895460128784 0.0310846921056509018 0.302182793617248535
0.491071403026580811 -0.0273437481373548508 0.3203125
0.375000029802322388 -0.140625014901161194 0.385029047727584839
0.116071425378322601 0.44921875 0.359375
0.178571432828903198 -0.334635376930236816 0.3359375
0.541666686534881592 0.274739533662796021 0.07421875
0.125 0.453125 0.36328125
0.142857149243354797 0.44140625 0.359375
-0.428571432828903198 -0.4296875 0.4140625
0.241071432828903198 0.45703125 0.28125
0.0357142873108386993 -0.37890625 0.34765625
-0.410714298486709595 -0.43359375 0.41015625
-0.607142865657806396 -0.402343720197677612 0.3984375
0.0982142835855484009 0.484375029802322388 0.2890625
0.437573611736297607 0.289082616567611694 0.101565681397914886
0.142857149243354797 0.44140625 0.359375
0.232142865657806396 -0.289062470197677612 0.328125029802322388
0.3125 -0.26171875 0.35546875
-0.25 -0.429687440395355225 0.41015625
0.187500014901161194 0.44921875 0.35546875
0.357142835855484009 -0.18359375 0.390625
0.0446428582072257996 0.5078125 0.296875
-0.125 -0.421875 0.355468779802322388
-0.625 -0.390625 0.38671875
0.205357149243354797 0.46484375 0.292968720197677612
0.374999940395355225 -0.164062514901161194 0.34375
0.0357142873108386993 -0.38671875 0.32421875
0.437500029802322388 0.31640625 0.1328125
-0.0892857164144515991 -0.437499970197677612 0.33203125
0.5 0.078125 0.2890625
0.526785731315612793 0.26171875 -0.0234375018626451492
-0.294642895460128784 -0.4296875 0.39453125
0.410714298486709595 0.316406190395355225 0.15234375
-0.598214268684387207 -0.39453125 0.39453125
0.133928507566452026 -0.34375 0.3359375
0.303571432828903198 0.449218779802322388 0.257812559604644775
0.223214283585548401 -0.3203125 0.3359375
0.330357104539871216 0.425781279802322388 0.230468735098838806
0.0535714291036128998 0.50390625 0.30078125
0.425205856561660767 0.294541031122207642 0.125250145792961121
-0.0714285746216773987 -0.41015625 0.328125
0.0357142873108386993 -0.37890625 0.34765625
0.116071425378322601 0.44921875 0.359375
0.321428567171096802 -0.2109375 0.3125
0.571428596973419189 0.270803362131118774 0.0507513508200645447
0.589285671710968018 0.25000077486038208 0.0585937425494194031
-0.294642865657806396 -0.441406279802322388 0.39453125
0.472848713397979736 -0.0312566980719566345 0.316193729639053345
0.151785731315612793 -0.353906244039535522 0.322656244039535522
0.392857134342193604 0.3515625 0.15625
0.133928567171096802 -0.33984375 0.31640625
0.473214298486709595 -0.0390625 0.328125
0.508928596973419189 0.1123046875 0.2216796875
0.4375 -0.03515625 0.33984375
0.401785731315612793 0.322898536920547485 0.157540485262870789
0.348214298486709595 0.406249970197677612 0.21484375
0.321428567171096802 -0.203125014901161194 0.31640625
-0.633928537368774414 -0.34375 0.37890625
0.348214298486709595 -0.1953125 0.3203125
0.241071432828903198 -0.296875 0.316406279802322388
-0.392857134342193604 -0.4375 0.41796875
0.446428567171096802 -0.06640625 0.328125
0.285714298486709595 0.46875 0.265625
0.464285671710968018 -0.02734375 0.31640625
0.0178571436554193497 0.5078125 0.296875
0.366071432828903198 -0.160156220197677612 0.382812470197677612
0.312500029802322388 -0.218750014901161194 0.36328125
0.330357134342193604 0.382812440395355225 0.19921875
-0.125 -0.429687470197677612 0.359375
-0.651785731315612793 -0.32421875 0.3671875
-0.571428596973419189 -0.410156279802322388 0.4140625
0.0714285746216773987 -0.36328125 0.3203125
-0.116071425378322601 -0.43359375 0.34375
0.375 -0.16796875 0.328125029802322388
0.330357164144515991 -0.203125 0.3125
0.321428567171096802 -0.25 0.359374970197677612
-2.1508250909463289e-12 -0.40234375 0.34765625
0.482142806053161621 0.0394035317003726959 0.29994809627532959
0.339285701513290405 -0.21875 0.36328125
0.562500059604644775 0.290364593267440796 0.0703125
0.0357142873108386993 0.50390625 0.304687440395355225
0.0714285746216773987 -0.35546875 0.33203125
0.0535714291036128998 -0.390625149011611938 0.328124731779098511
-0.142857149243354797 -0.421875 0.374999970197677612
0.223214283585548401 -0.29296875 0.32421875
0.303571462631225586 -0.2578125 0.34375
0.169642865657806396 -0.32421875 0.32421875
0.330357134342193604 -0.195312485098838806 0.312499970197677612
0.294642835855484009 0.4453125 0.238281235098838806
0.374999940395355225 -0.16796875 0.328125
-0.366071432828903198 -0.4375 0.40625
0.37500840425491333 -0.152346014976501465 0.382813453674316406
0.5625 0.24609375 0.0664062574505805969
0.0446428582072257996 0.5078125 0.30078125
0.428571432828903198 -0.0703125 0.35546875
-0.410714298486709595 -0.42578125 0.41796875
0.0714285746216773987 0.5 0.28125
0.196425840258598328 0.468771755695343018 0.296875745058059692
0.098214268684387207 0.44921875 0.36328125
0.196428567171096802 0.47655719518661499 0.293055295944213867
0.232142850756645203 0.44921875 0.328125
0.5 0.0328125022351741791 0.289062470197677612
0.160714283585548401 -0.328125 0.328125
0.330357134342193604 -0.1953125 0.376302063465118408
0.116071425378322601 0.4453125 0.359375
0.116071425378322601 0.496093809604644775 0.281250059604644775
0.142857149243354797 -0.3515625 0.3359375
-0.633928537368774414 -0.37109375 0.37890625
-0.616071403026580811 -0.38671875 0.39453125
0.5625 0.252604186534881592 0.05859375
0.5625 0.234374985098838806 0.0390625
0.533482193946838379 0.186523422598838806 0.1806640625
0.125 -0.36328125 0.328125
0.392857104539871216 -0.08203125 0.3515625
0.0357142873108386993 0.4921875 0.296875
0.366071432828903198 -0.179687529802322388 0.375
-0.294642865657806396 -0.4296875 0.39453125
0.232142850756645203 0.47265625 0.28125
0.285714298486709595 -0.26953125 0.359375
0.357142865657806396 -0.1875 0.3203125
-0.133928567171096802 -0.42578125 0.34375
0.276785701513290405 0.45703125 0.25
0.330357134342193604 -0.203124985098838806 0.3125
-0.642857134342193604 -0.34375 0.382812470197677612
0.321428626775741577 0.407552093267440796 0.20572914183139801
-0.348214298486709595 -0.44140625 0.40234375
-0.446428567171096802 -0.4375 0.421875
0.321428567171096802 -0.203125 0.3125
0.357142865657806396 0.398437559604644775 0.203125014901161194
0.0982142835855484009 0.5 0.2890625
-0.0178571455180644989 -0.3984375 0.3359375
-0.392857134342193604 -0.4375 0.414062470197677612
-0.223214298486709595 -0.421875029802322388 0.41796875
0.267857134342193604 -0.265625 0.3359375
-0.267857134342193604 -0.425788462162017822 0.3984375
0.321428537368774414 -0.238281235098838806 0.352539032697677612
-0.0714285746216773987 -0.421875 0.339843690395355225
-0.348214298486709595 -0.44140625 0.40234375
0.321428567171096802 -0.2109375 0.3125
0.482142865657806396 0.0286458339542150497 0.31640625
-0.642857193946838379 -0.339843779802322388 0.37109375
0.508928596973419189 0.14453125 0.19140625
0.526785731315612793 0.28515625 0.09375
0.0803571417927742004 -0.37890625 0.328125
0.169642835855484009 0.46875 0.2890625
0.00892857182770967484 0.492187529802322388 0.312499940395355225
0.125 -0.3515625 0.33984375
-0.642857134342193604 -0.34375 0.3828125
0.330357164144515991 -0.183593764901161194 0.375
0.4375 -0.0585937537252902985 0.35546875
-0.223214283585548401 -0.43359375 0.421875
0.187499955296516418 0.484375 0.2890625
0.0535714253783226013 -0.390625059604644775 0.339843779802322388
0.383928596973419189 -0.1484375 0.33984375
0.535714268684387207 0.249999970197677612 -0.02734375
0.25 0.453125 0.272135436534881592
0.0892857164144515991 0.49609375 0.285156220197677612
0.098214268684387207 -0.34765625 0.32421875
0.250000029802322388 0.453125029802322388 0.261718720197677612
0.232142850756645203 0.461914092302322388 0.3076171875
0.366071432828903198 0.3515625 0.148437485098838806
0.508928596973419189 0.166992172598838806 0.2001953125
0.0178571436554193497 0.51171875 0.3046875
-0.598214268684387207 -0.39453125 0.39453125
0.0892857164144515991 0.4921875 0.2734375
-0.642857134342193604 -0.359375 0.37890625
-0.535714268684387207 -0.41796875 0.421875
0.5 0.23828125 -0.015625
-0.633928596973419189 -0.33984375 0.375
3.61777491644788007e-12 0.49609375 0.3046875
0.473214298486709595 0.30859375 0.109375
0.565630614757537842 0.202553242444992065 0.101098433136940002
-0.553571403026580811 -0.41015625 0.4140625
0.339285701513290405 -0.234375 0.37109375
0.366071403026580811 0.389322906732559204 0.196614563465118408
-0.205357149243354797 -0.41796875 0.41015625
0.285714298486709595 -0.2734375 0.359375
0.232142850756645203 -0.30078125 0.33984375
0.0625 0.5078125 0.29296875
-0.473214298486709595 -0.41796875 0.4296875
0.169642850756645203 0.43359375 0.35546875
0.0892857164144515991 0.48828125 0.2890625
0.1875 -0.31640625 0.328125
0.196428567171096802 0.445312529802322388 0.355468720197677612
0.392857193946838379 -0.0859375 0.34765625
0.357142865657806396 -0.18359375 0.390625
0.446428567171096802 0.28515625 0.105354830622673035
0.151785716414451599 0.47265625 0.296875
0.357142865657806396 -0.1875 0.3203125
0.589285731315612793 0.230468779802322388 0.0820312574505805969
0.410714298486709595 -0.109374985098838806 0.33984375
0.0446428582072257996 0.5078125 0.2890625
0.214285716414451599 0.44921875 0.3359375
-0.0714285746216773987 -0.42578125 0.328124940395355225
0.0982142835855484009 0.44921875 0.36328125
-0.0982142835855484009 -0.421875 0.32421875
0.223214283585548401 0.4599609375 0.328125
0.3125 -0.229169979691505432 0.35546875
0.517857134342193604 0.218750014901161194 0.0078125
0.0446428582072257996 0.5078125 0.2890625
-0.276785701513290405 -0.433593779802322388 0.390625
-0.607142865657806396 -0.390625 0.39453125
0.366071432828903198 -0.18359375 0.32421875
-0.241071432828903198 -0.42578125 0.41015625
-0.348214298486709595 -0.4375 0.390625
0.0714285746216773987 -0.37109375 0.34375
-0.642857134342193604 -0.34375 0.3828125
0.321428596973419189 0.390625 0.20703125
-0.178571417927742004 -0.42578125 0.41015625
0.00892857182770967484 0.50390625 0.31640625
0.428571432828903198 -0.0458984412252902985 0.335937470197677612
0.151785716414451599 0.4375 0.3671875
-0.258928567171096802 -0.44140625 0.40625
0.0178571436554193497 0.50390625 0.29296875
0.0178571436554193497 0.50390625 0.29296875
0.455357164144515991 -0.01171875 0.3359375
0.383928567171096802 -0.125 0.34375
-0.0714285746216773987 -0.41015625 0.328125
0.232142850756645203 -0.296874940395355225 0.31640625
0.196428567171096802 -0.3125 0.3359375
0.25 0.44921875 0.26953125
-0.0178571436554193497 -0.41015625 0.328125
0.205357149243354797 -0.3203125 0.30859375
0.303571462631225586 -0.22265625 0.36328125
-0.642857193946838379 -0.35546875 0.37890625
0.428571432828903198 -0.08984375 0.33984375
0.410714268684387207 -0.0742187350988388062 0.33203125
-0.553571403026580811 -0.41015625 0.4140625
-0.633928656578063965 -0.32421875 0.37109375
0.00892857182770967484 -0.382812470197677612 0.34765625
0.214285731315612793 0.48046875 0.28125
0.508928596973419189 0.25390625 -0.01171875
-0.160714283585548401 -0.421875 0.359374970197677612
0.330357134342193604 -0.19921875 0.320312529802322388
0.392857164144515991 -0.09765625 0.343750029802322388
-0.642857134342193604 -0.35546875 0.37890625
-0.642857134342193604 -0.328124970197677612 0.378906220197677612
0.160714268684387207 0.4453125 0.35546875
-0.348214268684387207 -0.44140625 0.40234375
-0.330357134342193604 -0.4375 0.3984375
0.375000029802322388 -0.1171875 0.35546875
0.571428656578063965 0.24609375 0.0078125
-0.0267857145518064499 -0.40625 0.34375
-7.10140973803063957e-11 -0.40234375 0.34765625
0.169642850756645203 -0.33203125 0.3359375
0.366071462631225586 -0.167968735098838806 0.328125
0.419642865657806396 -0.06640625 0.34765625
-0.00892857182770967484 -0.4140625 0.3359375
0.187500014901161194 0.4375 0.35546875
0.526785790920257568 0.0761718675494194031 0.268554657697677612
-0.0982142835855484009 -0.42578125 0.339843720197677612
0.508928596973419189 0.23046875 -0.01171875
0.214285746216773987 0.45703125 0.34375
0.0982142835855484009 0.484375 0.2890625
0.178571417927742004 0.4765625 0.296875
0.553571403026580811 0.177639827132225037 0.163380250334739685
0.3125 -0.2109375 0.31640625
0.392857104539871216 -0.0898437425494194031 0.355468779802322388
0.375 0.3515625 0.1484375
-0.178571432828903198 -0.425781279802322388 0.410156220197677612
0.267857134342193604 -0.274739593267440796 0.354166656732559204
0.0446428582072257996 0.5 0.3046875
0.258928567171096802 0.47265625 0.277343779802322388
0.160714283585548401 -0.34375 0.335937529802322388
0.571428596973419189 0.201781928539276123 0.1328125
0.23214288055896759 -0.292968779802322388 0.3203125
0.125 0.484375 0.2734375
-0.276785701513290405 -0.4375 0.394531220197677612
0.285714298486709595 -0.24609375 0.3515625
0.330357134342193604 -0.203125 0.3125
0.357142895460128784 -0.141927078366279602 0.380208343267440796
0.267857134342193604 0.445312529802322388 0.25390625
-0.312499970197677612 -0.43359375 0.39453125
0.401785701513290405 -0.12109375 0.34375
0.348214298486709595 -0.19140625 0.37109375
-0.348214298486709595 -0.43359375 0.40625
-0.553571403026580811 -0.42578125 0.41015625
-0.5625 -0.40625 0.40234375
0.526785731315612793 0.199749216437339783 0.140639379620552063
0.357142895460128784 -0.14453125 0.37109375
0.285714298486709595 0.4638671875 0.277343779802322388
-0.410714298486709595 -0.4375 0.421875
-0.633928596973419189 -0.38671875 0.37890625
0.330357074737548828 -0.225260406732559204 0.363281220197677612
0.526785850524902344 0.191222727298736572 0.144795551896095276
0.321428567171096802 -0.20703125 0.3203125
0.383928567171096802 -0.15234375 0.33984375
0.151785716414451599 0.480468720197677612 0.296875059604644775
0.5 0.03515625 0.28515625
0.0535714291036128998 -0.3671875 0.32421875
0.169642850756645203 -0.33203125 0.3359375
0.125 0.48046875 0.2734375
-0.285714268684387207 -0.42578125 0.390625
-0.642857134342193604 -0.34375 0.3828125
0.00892857182770967484 -0.40625 0.33984375
-0.419642865657806396 -0.43359375 0.41015625
0.321428567171096802 -0.2109375 0.3203125
0.00892857182770967484 -0.3828125 0.3359375
0.0982142835855484009 -0.3671875 0.33984375
-0.133928567171096802 -0.425781220197677612 0.339843779802322388
-0.321428567171096802 -0.43359375 0.39453125
-0.642857134342193604 -0.3203125 0.3671875
0.303571432828903198 -0.230468764901161194 0.3671875
0.116071425378322601 0.4453125 0.359375
0.392857134342193604 0.315865427255630493 0.15722481906414032
-0.232142254710197449 -0.43359375 0.414064913988113403
0.330357134342193604 -0.242187514901161194 0.36328125
0.276785671710968018 0.43581053614616394 0.251733750104904175
-0.249999970197677612 -0.429687529802322388 0.4140625
-0.142857149243354797 -0.4296875 0.35546875
-0.0267857145518064499 -0.40625 0.328125
0.133928567171096802 0.44140625 0.359375
0.357142865657806396 0.364568650722503662 0.200502678751945496
0.3125 0.441406190395355225 0.242187529802322388
-0.625 -0.390625 0.38671875
0.5 0.149739578366279602 0.194010421633720398
0.517857193946838379 0.184374988079071045 0.168749988079071045
0.142857149243354797 0.48828125 0.285156309604644775
0.526785671710968018 0.140625 0.234375
0.0714285746216773987 -0.37890625 0.328125
0.00892858300358057022 0.4921875 0.3125
0.366071432828903198 0.3828125 0.204427078366279602
-0.571428596973419189 -0.41015625 0.414062440395355225
-0.0267857145518064499 -0.4140625 0.33984375
0.455357104539871216 -0.00911458209156990051 0.33203125
0.00892857182770967484 0.49609375 0.30078125
-0.0714285746216773987 -0.4140625 0.328125
0.133928552269935608 0.4453125 0.3671875
0.098214276134967804 0.5 0.2734375
-0.142857149243354797 -0.42578125 0.378906220197677612
0.455357134342193604 -0.00651041651144623756 0.326822906732559204
0.383928567171096802 -0.109374992549419403 0.34375
2.28094431363456973e-12 0.503906190395355225 0.308593720197677612
0.0357142873108386993 -0.37109375 0.328125
0.446428567171096802 -0.072916664183139801 0.3515625
0.410714268684387207 -0.071614585816860199 0.3359375
-0.383928567171096802 -0.4453125 0.40234375
-0.633928596973419189 -0.37890625 0.375
0.214285701513290405 0.46484375 0.27734375
-0.241071432828903198 -0.42578125 0.41015625
0.348214298486709595 -0.152913182973861694 0.37418818473815918
0.428571432828903198 0.3125 0.140625
-0.428571462631225586 -0.4296875 0.4140625
-0.419642865657806396 -0.4375 0.421875
0.366071462631225586 -0.171875014901161194 0.335937529802322388
-0.633928477764129639 -0.316406220197677612 0.371093720197677612
-0.625 -0.38671875 0.38671875
-0.178571432828903198 -0.41796875 0.39453125
0.5 0.0625 0.2890625
0.401785701513290405 -0.130208328366279602 0.348958343267440796
-0.642857134342193604 -0.35546875 0.37890625
0.383928596973419189 0.34765625 0.14453125
0.464285731315612793 0.00390625 0.32421875
-0.178571432828903198 -0.417968779802322388 0.3984375
0.357043802738189697 -0.156198814511299133 0.3671875
0.553571403026580811 0.234375 -0.00390625
0.232142850756645203 0.46484375 0.32421875
0.357142865657806396 -0.199218735098838806 0.3828125
0.464285701513290405 -0.03125 0.3203125
0.366077125072479248 -0.144526317715644836 0.386715978384017944
0.1071428582072258 0.453125 0.3671875
0.526785731315612793 0.2578125 -0.02734375
-0.633928596973419189 -0.32421875 0.3671875
0.142857149243354797 -0.35546875 0.3203125
0.357142865657806396 -0.1953125 0.375
-0.142857149243354797 -0.42578125 0.34765625
0.473214328289031982 0.303124994039535522 0.0882812663912773132
0.1071428582072258 0.453125 0.3671875
0.0714285746216773987 -0.37890625 0.343749970197677612
-0.267857134342193604 -0.425788223743438721 0.3984375
0.339285701513290405 -0.23046875 0.375
0.267857193946838379 0.46875 0.265625
0.267857134342193604 -0.30078125 0.33984375
0.267857134342193604 0.4609375 0.2890625
0.205357164144515991 0.47265625 0.277343690395355225
-0.169642850756645203 -0.421875 0.3984375
0.0982142835855484009 0.4921875 0.27734375
0.495342880487442017 0.0190765857696533203 0.298231035470962524
-0.258928567171096802 -0.4296875 0.40234375
0.151785716414451599 -0.343750029802322388 0.3359375
0.535714328289031982 0.218749985098838806 -0.00781250093132257462
0.473214298486709595 -2.69427112998404938e-13 0.308593690395355225
0.375 0.3515625 0.148437485098838806
-0.517857193946838379 -0.42578125 0.410156279802322388
0.142857149243354797 -0.3515625 0.3359375
0.232142850756645203 -0.30859375 0.3125
0.0357142873108386993 -0.375 0.33984375
-0.392857134342193604 -0.437499970197677612 0.4140625
0.0178571436554193497 0.5078125 0.30859375
0.0982142835855484009 0.484375 0.27734375
0.196428567171096802 0.453124970197677612 0.3515625
0.455357134342193604 -0.0703125074505805969 0.3388671875
0.0714285746216773987 0.50390625 0.27734375
0.0535714291036128998 0.49609375 0.2890625
0.044642861932516098 -0.390624970197677612 0.324218779802322388
-0.0892857164144515991 -0.421874970197677612 0.32421875
0.482142895460128784 -0.0265625007450580597 0.335156232118606567
0.196428552269935608 -0.30859375 0.32421875
0.116071417927742004 0.4921875 0.2734375
0.241071432828903198 -0.28515625 0.328125
0.5625 0.232421860098838806 0.105468742549419403
-0.633928596973419189 -0.37890625 0.375
0.0178571436554193497 0.5078125 0.30859375
0.348214298486709595 0.41015625 0.214843735098838806
0.3125 -0.203125 0.37890625
-0.651785671710968018 -0.343749970197677612 0.37109375
-0.151785746216773987 -0.425781220197677612 0.355468779802322388
-0.589285790920257568 -0.410156279802322388 0.402343720197677612
0.357142865657806396 -0.175781235098838806 0.33203125
0.0982142835855484009 -0.34765625 0.328124970197677612
0.0178571436554193497 0.507812559604644775 0.296875
0.267857134342193604 -0.28125 0.35546875
-0.535714268684387207 -0.41796875 0.421875
0.321428567171096802 -0.21484375 0.36328125
-0.455357134342193604 -0.421875 0.42578125
-0.392857134342193604 -0.429687529802322388 0.41015625
-0.607142865657806396 -0.3984375 0.390625
-0.437499970197677612 -0.437500029802322388 0.42578125
0.410714238882064819 -0.09765625 0.3359375
0.526785731315612793 0.106119789183139801 0.23893226683139801
0.151785716414451599 0.4921875 0.28125
0.508928656578063965 0.05859375 0.3046875
0.499999940395355225 0.00969910528510808945 0.323257893323898315
0.0178571436554193497 0.5078125 0.30078125
0.535714268684387207 0.25390625 -0.03125
0.321428567171096802 -0.21484375 0.36328125
-0.205357134342193604 -0.4296875 0.4140625
0.375 -0.16276039183139801 0.33984375
0.357142895460128784 0.390624940395355225 0.19140625
0.178571432828903198 0.484375 0.27734375
0.125 0.484375029802322388 0.2734375
0.0267857145518064499 -0.39453125 0.33203125
0.125 0.48828125 0.29296875
0.571428596973419189 0.206689491868019104 0.13671875
0.321428567171096802 -0.2109375 0.3671875
0.562499940395355225 0.23828125 0.01171875
0.214285716414451599 0.464843720197677612 0.292968839406967163
0.0892857164144515991 -0.3515625 0.32421875
0.562499880790710449 0.236718744039535522 0.0890624970197677612
0.267857104539871216 -0.289062470197677612 0.3203125
-0.330357134342193604 -0.437500029802322388 0.3984375
0.357142865657806396 -0.1875 0.37890625
0.214285701513290405 0.441406279802322388 0.33984375
0.1071428582072258 0.4453125 0.36328125
0.0714285746216773987 -0.37890625 0.34375
0.0892857164144515991 0.484375 0.28125
0.580357134342193604 0.22265625 0.0664062425494194031
0.562499940395355225 0.292968720197677612 0.05078125
0.160714283585548401 0.44140625 0.363281279802322388
0.303571432828903198 -0.23046875 0.3671875
0.553571403026580811 0.247395828366279602 0.0520833320915699005
-0.348214298486709595 -0.44140625 0.40234375
0.437500029802322388 -0.0351562574505805969 0.34375
0.151785716414451599 0.4375 0.3671875
-0.607142865657806396 -0.390624970197677612 0.39453125
0.464285701513290405 -0.0195312518626451492 0.34375
-0.633928596973419189 -0.36328125 0.3828125
0.348214238882064819 -0.1875 0.32421875
0.357142865657806396 -0.203125014901161194 0.37890625
0.285714298486709595 -0.26953125 0.359375
0.401785671710968018 -0.08203125 0.359375
0.241071432828903198 -0.30078125 0.34765625
0.374999970197677612 -0.1171875 0.347656279802322388
0.142857149243354797 0.44140625 0.359375
-0.580357193946838379 -0.40234375 0.40625
-0.303571432828903198 -0.4375 0.38671875
0.464285701513290405 0.0078125 0.317708343267440796
0.0357142873108386993 0.4921875 0.30078125
-0.383928567171096802 -0.44140625 0.40234375
0.1875 -0.33203125 0.308593779802322388
0.321428567171096802 -0.25 0.37109375
-0.607142865657806396 -0.40234375 0.390625
0.482142865657806396 0.00390625 0.3046875
0.535714328289031982 0.148592054843902588 0.192534327507019043
-0.517857134342193604 -0.421875 0.421875
0.125 0.453125 0.36328125
0.401785701513290405 -0.0859375 0.3359375
0.285714298486709595 -0.253906220197677612 0.363281220197677612
0.348214298486709595 -0.1875 0.3203125
-0.116071425378322601 -0.4296875 0.339843779802322388
0.205357134342193604 0.46484375 0.29296875
0.169642850756645203 -0.33203125 0.3359375
0.517857193946838379 0.0415039099752902985 0.29833984375
0.5 0.05859375 0.308593720197677612
0.25 -0.27734375 0.33984375
0.0982142835855484009 0.49609375 0.2734375
0.241071432828903198 -0.28515625 0.328125
0.357142865657806396 -0.191406235098838806 0.31640625
-0.642857074737548828 -0.2890625 0.37109375
0.241071432828903198 0.46875 0.3203125
0.0178571436554193497 -0.395507782697677612 0.3466796875
0.160714298486709595 0.48828125 0.2890625
0.485119044780731201 0.03515625 0.315104156732559204
-0.508928418159484863 -0.43359375 0.41796875
0.392857134342193604 0.3359375 0.132812529802322388
0.571428596973419189 0.21484375 0.125
0.142857149243354797 0.476562529802322388 0.29296875
0.294642835855484009 -0.2421875 0.37109375
-0.116071432828903198 -0.43359375 0.3515625
0.0178571473807096481 0.50390625 0.3125
-0.348214298486709595 -0.44140625 0.40234375
-0.357142865657806396 -0.43359375 0.40234375
-0.464285701513290405 -0.41796875 0.425781190395355225
0.517857134342193604 0.18359375 0.153906404972076416
0.1071428582072258 0.453125 0.3671875
0.366071403026580811 -0.18359375 0.32421875
-0.0714285746216773987 -0.421875 0.32421875
0.446428507566452026 -0.0798041746020317078 0.337590306997299194
-0.125 -0.425781279802322388 0.35546875
0.142857149243354797 0.44140625 0.3671875
-0.357142865657806396 -0.43359375 0.40234375
0.205357149243354797 -0.33203125 0.328125
0.241071432828903198 -0.308094978332519531 0.34375
-0.571428596973419189 -0.41015625 0.4140625
-0.642857134342193604 -0.300130307674407959 0.370442628860473633
-0.160714283585548401 -0.41796875 0.398612290620803833
-0.0714285597205162048 -0.4296875 0.33203125
0.464285701513290405 -0.046875 0.324218779802322388
0.339285761117935181 0.390625 0.1875
0.241071432828903198 0.47265625 0.3046875
-0.571428656578063965 -0.41015625 0.40625
0.205357149243354797 0.46875 0.2890625
0.0803571417927742004 0.51171875 0.28515625
0.0803571417927742004 0.5 0.27734375
0.517857193946838379 0.304687470197677612 0.0989583432674407959
0.133928567171096802 -0.33984375 0.328125
0.499999940395355225 0.069661460816860199 0.264973968267440796
-0.526785731315612793 -0.41796875 0.41796875
0.517857193946838379 0.07177734375 0.264160186052322388
0.267857134342193604 0.464843779802322388 0.28515625
-0.25 -0.42578125 0.41015625
-0.276785701513290405 -0.4375 0.40625
0.160714283585548401 0.4765625 0.27734375
0.321428567171096802 0.4296875 0.2421875
0.3125 -0.26953125 0.359375
0.16964288055896759 0.484375029802322388 0.277343720197677612
0.0446428582072257996 0.507812440395355225 0.296875
0.330357193946838379 -0.203125 0.316406279802322388
0.0357142873108386993 -0.37890625 0.34765625
-0.401785731315612793 -0.437499970197677612 0.41796875
0.383928567171096802 -0.09765625 0.359375
0.321428596973419189 0.39453125 0.199218779802322388
0.00892857089638710022 -0.3828125 0.3359375
-0.455357164144515991 -0.421875 0.42578125
-0.589285731315612793 -0.40234375 0.398437470197677612
0.348214298486709595 -0.191406235098838806 0.390625
0.1875 -0.31640625 0.328125029802322388
-0.00892857182770967484 0.503906309604644775 0.320312529802322388
0.5 0.0111693274229764938 0.306303054094314575
-0.330357134342193604 -0.4375 0.3984375
0.116071425378322601 0.4921875 0.2734375
0.473214298486709595 -0.0390625 0.328124970197677612
0.357142865657806396 -0.19140625 0.375
0.321428537368774414 -0.23046875 0.35546875
0.0535714253783226013 0.4921875 0.296875
-0.589285731315612793 -0.3984375 0.3984375
0.499999940395355225 0.125651046633720398 0.236979186534881592
-0.366071432828903198 -0.4375 0.40625
0.499999940395355225 0.26171875 -0.0468750037252902985
0.267857134342193604 -0.269531279802322388 0.33203125
0.383928567171096802 -0.148437514901161194 0.357756555080413818
0.446428567171096802 -0.05859375 0.35546875
0.0178571436554193497 -0.386718779802322388 0.328125
-0.0892857164144515991 -0.414062470197677612 0.33203125
0.419642835855484009 -0.0625 0.33984375
0.330357134342193604 -0.1953125 0.31640625
-0.455357104539871216 -0.421875 0.4296875
0.0982142835855484009 0.484375 0.27734375
0.517857134342193604 0.131510421633720398 0.201822921633720398
0.0178571436554193497 -0.386718779802322388 0.328125
0.357142865657806396 -0.183593764901161194 0.3203125
0.223214283585548401 -0.29296875 0.33203125
-0.357142865657806396 -0.43359375 0.39453125
0.303571432828903198 0.4140625 0.2421875
0.312500029802322388 -0.2578125 0.367187529802322388
-0.642857134342193604 -0.26953125 0.37109375
0.366071432828903198 -0.1796875 0.33203125
-0.0267857145518064499 -0.41796875 0.332031190395355225
0.3125 -0.214843735098838806 0.37890625
-0.455357104539871216 -0.4375 0.421875
-0.321428567171096802 -0.44140625 0.3984375
0.0714285746216773987 0.50390625 0.27734375
0.598214209079742432 0.2353515625 0.06640625
0.598214268684387207 0.235839858651161194 0.0532225482165813446
0.258928567171096802 -0.304687470197677612 0.3203125
0.464285701513290405 -0.00781250093132257462 0.335937529802322388
-0.642857074737548828 -0.359375 0.375
0.383928567171096802 0.356445342302322388 0.1767578125
0.312500029802322388 -0.203125 0.3203125
0.0357142873108386993 0.51171875 0.296875029802322388
-0.303571462631225586 -0.4375 0.38671875
-0.0357142873108386993 -0.402343690395355225 0.3359375
1.20884660788356246e-12 -0.38671875 0.3359375
-0.223214268684387207 -0.43359375 0.421875
0.553768932819366455 0.21513742208480835 0.138520583510398865
-0.651785671710968018 -0.332031309604644775 0.3671875
-0.303571432828903198 -0.4375 0.38671875
0.348214298486709595 0.386718779802322388 0.1796875
0.455357134342193604 -0.0546875 0.32421875
-0.642857193946838379 -0.35546875 0.37109375
-0.401785701513290405 -0.4375 0.41015625
0.399359762668609619 0.304563432931900024 0.138577580451965332
0.357142865657806396 0.40625 0.20703125
0.241071432828903198 0.46484375 0.265625
0.529017806053161621 0.130859389901161194 0.2060546875
0.510714173316955566 0.0953124910593032837 0.238281264901161194
0.0714285820722579956 0.5 0.285156220197677612
-0.580357134342193604 -0.40234375 0.3984375
0.508928596973419189 0.23046875 -0.01171875
0.133928567171096802 -0.35546875 0.32421875
0.160714283585548401 0.48828125 0.296875
0.0714285597205162048 -0.3671875 0.34375
0.526785850524902344 0.2578125 -0.02734375
0.258928537368774414 0.453125 0.296875029802322388
-0.544642865657806396 -0.42578125 0.41015625
0.0714285746216773987 -0.36328125 0.3203125
0.258928567171096802 0.4609375 0.25390625
-0.633928596973419189 -0.34375 0.37890625
-0.142857149243354797 -0.4140625 0.37109375
-0.5625 -0.40625 0.41015625
0.508928656578063965 0.23828125 -0.01953125
-0.116071425378322601 -0.417968779802322388 0.3359375
-0.0357142873108386993 -0.40234375 0.3359375
0.267857134342193604 -0.28515625 0.32421875
0.401785701513290405 -0.12109375 0.3671875
-0.321428567171096802 -0.441406220197677612 0.3984375
0.348214298486709595 -0.19140625 0.37109375
-0.366071403026580811 -0.44921875 0.40234375
-0.0714285746216773987 -0.410156220197677612 0.328125
0.366071432828903198 -0.16796875 0.3359375
0.544642806053161621 0.1982421875 0.125
0.571428596973419189 0.2509765625 0.0068359375
0.151785716414451599 -0.355468809604644775 0.33203125
-0.267857134342193604 -0.4296875 0.39453125
0.455357134342193604 -0.0546875 0.3515625
0.0446428582072257996 0.5078125 0.2890625
0.330357134342193604 -0.2265625 0.3828125
-0.3125 -0.43359375 0.39453125
0.414419263601303101 0.304280221462249756 0.127028197050094604
0.419642865657806396 -0.10546875 0.34375
-0.0803571417927742004 -0.4296875 0.328125
0.508928596973419189 0.303385436534881592 0.07421875
0.0446428582072257996 0.500000059604644775 0.3046875
0.0982142835855484009 0.484374970197677612 0.2890625
-0.321428537368774414 -0.44140625 0.3984375
0.553571403026580811 0.2265625 0.125
0.446428567171096802 -0.05078125 0.32421875
0.419642865657806396 -0.07421875 0.359375
-0.383928596973419189 -0.441406220197677612 0.40234375
0.303571462631225586 0.44140625 0.25390625
0.0982142835855484009 0.45703125 0.3671875
0.0446428582072257996 0.5078125 0.296875
0.214285716414451599 0.484375 0.285156279802322388
0.00892857275903224945 -0.406250029802322388 0.33984375
-0.553571462631225586 -0.41796875 0.41015625
0.0803571417927742004 -0.371093690395355225 0.3203125
0.00892857182770967484 0.5 0.316406220197677612
0.151785716414451599 0.47265625 0.29296875
-0.607142865657806396 -0.40234375 0.3984375
0.375 -0.1640625 0.3359375
-0.0178571436554193497 -0.4140625 0.328125
0.330357134342193604 -0.1953125 0.3125
-0.160714283585548401 -0.421875 0.375
0.339285701513290405 -0.19140625 0.3203125
0.276785701513290405 0.4453125 0.242187514901161194
0.3125 0.404687494039535522 0.2109375
0.0535714291036128998 0.5078125 0.30078125
-0.0803571343421936035 -0.425781279802322388 0.33984375
0.285714298486709595 -0.265625 0.33203125
-0.589285731315612793 -0.40234375 0.40234375
0.526785790920257568 0.0898437574505805969 0.253125011920928955
0.580357134342193604 0.223307296633720398 0.105468764901161194
-0.508928596973419189 -0.4296875 0.4140625
0.526785731315612793 0.0937500149011611938 0.25390625
0.178571432828903198 0.437500029802322388 0.355468779802322388
0.205357164144515991 0.4765625 0.28515625
0.4375 -0.0755208283662796021 0.33203125
-0.330357134342193604 -0.4375 0.3984375
0.429013848304748535 0.323768377304077148 0.115769572556018829
0.0535714291036128998 -0.37890625 0.34765625
0.553571403026580811 0.2421875 0.0585937462747097015
0.116071432828903198 0.492187470197677612 0.2734375
0.142857149243354797 -0.3359375 0.33203125
0.142857149243354797 0.441406279802322388 0.359375
-0.330357134342193604 -0.44140625 0.390625
-0.607142865657806396 -0.40234375 0.390625
-0.0625 -0.41015625 0.3359375
-0.160714283585548401 -0.417968690395355225 0.39453125
0.133928567171096802 -0.35546875 0.324218720197677612
-0.3125 -0.43359375 0.38671875
-0.375 -0.43359375 0.40625
0.321428567171096802 -0.203125 0.3125
0.446428567171096802 -0.07421875 0.342447906732559204
0.3125 -0.253906220197677612 0.3671875
0.375 0.382812529802322388 0.1875
-0.642857134342193604 -0.28125 0.374999970197677612
0.446391195058822632 -0.0507812462747097015 0.35546875
0.464285701513290405 -0.0322265625 0.34765625
0.508928477764129639 0.229166656732559204 0.00260416651144623756
0.312499940395355225 0.406250029802322388 0.234375
0.151785716414451599 -0.3359375 0.3359375
0.357142835855484009 -0.19140625 0.31640625
0.464285731315612793 -0.000781249953433871269 0.316406279802322388
0.125 -0.3515625 0.31640625
0.5 0.30859375 0.08984375
-0.455357223749160767 -0.425781220197677612 0.4296875
0.366071432828903198 0.328051120042800903 0.159999147057533264
0.339285701513290405 -0.234375 0.37109375
0.383928596973419189 -0.100260414183139801 0.3515625
0.0446428656578063965 -0.382812529802322388 0.32421875
0.0267857145518064499 0.5 0.296874970197677612
-0.160714283585548401 -0.4140625 0.3984375
0.178571432828903198 0.44140625 0.34765625
0.535714268684387207 0.25390625 0.015625
0.178571432828903198 0.4375 0.35546875
0.160714268684387207 0.44140625 0.36328125
0.375 -0.164062514901161194 0.375
0.589285731315612793 0.2578125 0.03125
0.401785701513290405 -0.1015625 0.33984375
0.0714285746216773987 -0.3828125 0.332031279802322388
0.223214283585548401 0.442708343267440796 0.33203125
0.258928537368774414 0.47265625 0.27734375
-0.205357149243354797 -0.41796875 0.41015625
0.544642865657806396 0.267968744039535522 0.0499999932944774628
0.383928537368774414 -0.15234375 0.33984375
0.339285701513290405 0.402343779802322388 0.23046875
-0.125 -0.421875 0.3359375
0.3125 -0.21484375 0.374999970197677612
0.339285701513290405 -0.176214352250099182 0.370482385158538818
0.535714268684387207 0.2265625 -0.00390625
0.482142865657806396 0.257812529802322388 -0.03515625
0.0625 -0.3671875 0.3203125
0.517857074737548828 0.141601547598838806 0.1943359375
0.580357074737548828 0.216796889901161194 0.0986328050494194031
0.401785701513290405 0.328130781650543213 0.164014130830764771
0.0535714291036128998 0.49609375 0.30078125
0.0625 0.5 0.285156220197677612
-0.187236979603767395 -0.417968779802322388 0.41796875
0.545538485050201416 0.185974463820457458 0.174371823668479919
0.0982142835855484009 0.4921875 0.27734375
0.526785671710968018 0.17578125 0.149739593267440796
-0.178571417927742004 -0.42578125 0.41015625
0.00892857182770967484 -0.38671875 0.3515625
0.419642835855484009 -0.0703125 0.359375
-0.0535714291036128998 -0.4140625 0.33984375
4.44166318308569785e-12 -0.40625 0.343750089406967163
0.0982142835855484009 0.50390625 0.28515625
0.258928567171096802 0.450520843267440796 0.263020813465118408
-0.258928567171096802 -0.44140625 0.40625
0.383928567171096802 -0.125 0.34375
0.205357149243354797 0.48046875 0.29296875
-0.0267857145518064499 -0.41796875 0.33203125
0.508928596973419189 0.1328125 0.25
-0.366071432828903198 -0.4375 0.40625
0.00892857182770967484 0.5 0.31640625
-0.294642865657806396 -0.44140625 0.39453125
-0.0267857145518064499 -0.41796875 0.33203125
0.196428567171096802 -0.3125 0.3359375
-0.160714283585548401 -0.41796875 0.402343720197677612
0.580357074737548828 0.248697906732559204 0.0234375018626451492
0.526785731315612793 0.286458313465118408 0.0664062425494194031
0.357142895460128784 -0.151041686534881592 0.375
0.312500029802322388 -0.2109375 0.31640625
0.116071432828903198 -0.36328125 0.3359375
0.0267857145518064499 -0.3984375 0.3359375
-0.0714285746216773987 -0.4140625 0.3359375
0.544642865657806396 0.23828125 0.015625
0.151785701513290405 -0.33203125 0.328125
0.294642895460128784 0.4609375 0.272460967302322388
0.142857134342193604 0.476562470197677612 0.2890625
-0.544642925262451172 -0.4140625 0.40625
0.410714298486709595 -0.1015625 0.3359375
0.232142850756645203 -0.31640625 0.3359375
0.366192549467086792 -0.130020186305046082 0.37065461277961731
0.250000029802322388 0.454427063465118408 0.278645843267440796
-0.151785746216773987 -0.4140625 0.36328125
-0.187499970197677612 -0.425781279802322388 0.4140625
0.330357134342193604 -0.19921875 0.3203125
0.0178571436554193497 0.50390625 0.3125
-0.625 -0.38671875 0.38671875
0.294642865657806396 -0.238281264901161194 0.37109375
0.401785969734191895 -0.0781250149011611938 0.350781261920928955
-0.491071432828903198 -0.429687470197677612 0.4296875
0.455357134342193604 0.2978515625 0.1201171875
0.178571432828903198 0.445312470197677612 0.359375
0.419642865657806396 0.312500059604644775 0.144047811627388
0.241071432828903198 0.46484375 0.265625
0.178571432828903198 0.437500029802322388 0.35546875
-0.0446428582072257996 -0.41796875 0.328125
-0.616071403026580811 -0.390625 0.38671875
0.178571432828903198 -0.3203125 0.328125
0.357142865657806396 0.402343779802322388 0.199218764901161194
0.348150342702865601 0.35545310378074646 0.188898682594299316
-0.00892857182770967484 -0.410156279802322388 0.33203125
-0.151785731315612793 -0.421875 0.386718720197677612
0.410714298486709595 -0.117187492549419403 0.348958343267440796
0.375 -0.15234375 0.34375
-0.642857134342193604 -0.3515625 0.37890625
0.285714298486709595 0.46875 0.26953125
0.169642850756645203 0.484375 0.292968809604644775
-0.589285790920257568 -0.402343779802322388 0.3984375
0.187500029802322388 -0.335937529802322388 0.3125
0.1875 -0.32421875 0.3359375
-0.383928567171096802 -0.4453125 0.41015625
0.491071403026580811 -0.000976562616415321827 0.3310546875
0.5625 0.222656235098838806 0.0712890550494194031
0.0892857164144515991 -0.3515625 0.32421875
0.526785731315612793 0.298177123069763184 0.098307289183139801
-0.366071432828903198 -0.4375 0.40625
0.178571432828903198 -0.34375 0.32421875
0.517857074737548828 0.108072921633720398 0.270833343267440796
0.544642925262451172 0.26171875 0.0195312518626451492
0.5 0.25390625 -0.0221354160457849503
0.285714268684387207 0.430664032697677612 0.2451171875
0.151785716414451599 0.48046875 0.296875
0.116071425378322601 -0.35546875 0.31640625
-0.178571432828903198 -0.42578125 0.410156220197677612
0.535795271396636963 0.16875690221786499 0.188280165195465088
0.0535714291036128998 0.496093779802322388 0.30078125
0.0446428582072257996 -0.3828125 0.32421875
0.0357142873108386993 0.503906190395355225 0.3046875
0.312500029802322388 -0.253906279802322388 0.3515625
-0.169642865657806396 -0.417968720197677612 0.41015625
0.267857104539871216 -0.269531339406967163 0.350260436534881592
0.455357134342193604 -0.0481770820915699005 0.3515625
0.446428507566452026 0.2939453125 0.125976547598838806
0.116071425378322601 -0.36328125 0.3203125
0.428571432828903198 -0.078125 0.355468779802322388
0.544749200344085693 0.164419680833816528 0.171634659171104431
0.0446428582072257996 0.5078125 0.2890625
0.0535714291036128998 -0.390625 0.328125
0.562499940395355225 0.283854156732559204 0.0716145783662796021
-0.633928596973419189 -0.34375 0.378906279802322388
0.0357142873108386993 -0.37109375 0.328125
-0.651785731315612793 -0.339843720197677612 0.3671875
-0.553571403026580811 -0.41796875 0.41015625
0.473214268684387207 -0.015625 0.3125
0.0714285746216773987 -0.35546875 0.33203125
