ply
format ascii 1.0
element vertex 1020
comment vertices
property float x
property float y
property float z
end_header
0.169642850756645203 0.140625 0.5546875
0.705357134342193604 -0.136718764901161194 0.30859375
0.0714285746216773987 0.0390625 0.60546875
0.821428596973419189 0.0656416714191436768 0.145987674593925476
0.692023336887359619 0.108722202479839325 0.164455607533454895
0.464285701513290405 -0.43359375 0.39453125
0.428571462631225586 0.289062470197677612 0.3125
0.0267857145518064499 -0.5703125 0.36328125
0.410714298486709595 -0.44921875 0.37890625
0.383928567171096802 -0.46484375 0.38671875
0.732142865657806396 -0.00390625 0.35546875
0.0982142835855484009 0.0781250074505805969 0.59765625
0.678571403026580811 -0.0390625 0.2109375
0.78158336877822876 0.0930414125323295593 0.167157351970672607
-0.3125 -0.5625 0.367187470197677612
-0.151785731315612793 -0.578125 0.359374970197677612
0.553571403026580811 -0.37109375 0.38671875
0.714285731315612793 -0.1806640625 0.32421875
0.535714268684387207 -0.32421875 0.453125
0.455357074737548828 -0.42578125 0.40234375
-0.160714283585548401 -0.57421875 0.37109375
0.00892857182770967484 0.0234375 0.60546875
0.75 0.0078125 0.324218690395355225
0.832273364067077637 0.00215498311445116997 0.170104026794433594
0.303571462631225586 0.2216796875 0.476562529802322388
0.0982142835855484009 0.08203125 0.58984375
0.660943806171417236 0.134901866316795349 0.178629368543624878
0.75 0.00390625 0.2734375
0.312499970197677612 -0.492187529802322388 0.39453125
0.241071432828903198 -0.5234375 0.40625
0.593660116195678711 0.237788394093513489 0.237135469913482666
0.723214268684387207 -0.00781249953433871269 0.3515625
0.0803571417927742004 -0.55859375 0.37890625
-0.267857134342193604 -0.57421875 0.371093809604644775
0.741071403026580811 1.00984541909210357e-11 0.33203125
0.732142865657806396 -0.00390625 0.35546875
0.669642865657806396 -0.226562514901161194 0.3203125
0.678571403026580811 -0.188802078366279602 0.3203125
0.607142865657806396 -0.33203125 0.37890625
-0.116071425378322601 -0.58984375 0.36328125
0.491071432828903198 -0.4140625 0.390625
-0.205357149243354797 -0.57421875 0.38671875
0.607142865657806396 -0.3046875 0.359375
0.553571522235870361 -0.324218720197677612 0.4453125
0.811137259006500244 0.0354867205023765564 0.194713965058326721
0.267857134342193604 0.220052078366279602 0.5
0.410714298486709595 0.265625 0.3984375
0.696428596973419189 -0.0235176216810941696 0.207086965441703796
0.116071425378322601 0.11328125 0.578125
0.571428656578063965 0.2353515625 0.2978515625
0.401785701513290405 0.30078125 0.328125
0.116071425378322601 0.10546875 0.57421875
0.241071432828903198 -0.5234375 0.40625
0.107142850756645203 -0.550781190395355225 0.390625
0.285714298486709595 -0.496093779802322388 0.3984375
0.214285716414451599 -0.52734375 0.375
0.339285731315612793 -0.488281279802322388 0.3984375
0.116071425378322601 0.08984375 0.58984375
0.0892857164144515991 0.06640625 0.60546875
0.303571462631225586 0.23046875 0.468749970197677612
0.669642865657806396 -0.03125 0.2109375
0.321428567171096802 -0.484375 0.39453125
0.455357134342193604 -0.42578125 0.40234375
0.303571432828903198 -0.4921875 0.41015625
0.3125 0.230468764901161194 0.4765625
0.651785731315612793 -0.28125 0.35546875
0.705357134342193604 -0.01171875 0.2109375
0.419642865657806396 0.300781190395355225 0.3203125
-0.160714283585548401 -0.574218690395355225 0.363281190395355225
0.660714268684387207 -0.265625 0.35546875
0.741071403026580811 -2.80120241238912548e-12 0.33203125
0.410714298486709595 -0.44921875 0.37890625
0.339285701513290405 -0.4765625 0.390625
-0.00892857089638710022 -0.5703125 0.35546875
0.694467008113861084 0.12770456075668335 0.172095626592636108
0.624999940395355225 -0.0654296949505805969 0.20703125
0.446428567171096802 -0.4296875 0.37890625
0.482142865657806396 -0.4140625 0.39453125
0.598214268684387207 -0.3359375 0.3671875
0.810313761234283447 0.0594680346548557281 0.177225634455680847
0.696428596973419189 -0.00390625 0.37890625
0.553571343421936035 -0.3671875 0.386718720197677612
-0.267857134342193604 -0.578125059604644775 0.37109375
0.732142865657806396 -2.35083372039646132e-12 0.34765625
0.802212834358215332 0.0205165315419435501 0.157206162810325623
0.258928567171096802 -0.5078125 0.40234375
0.375 -0.460937440395355225 0.39453125
0.151785716414451599 -0.539062440395355225 0.37890625
0.732142865657806396 0.0117187490686774254 0.265625
0.214285716414451599 0.19140625 0.51171875
0.375 -0.476562470197677612 0.390625
0.348214298486709595 0.26171875 0.4453125
0.205357149243354797 0.195312514901161194 0.51953125
0.428571432828903198 0.2890625 0.30859375
0.196428582072257996 -0.5390625 0.3828125
0.562500119209289551 0.2353515625 0.304687529802322388
0.535714328289031982 -0.3828125 0.38671875
-0.267857164144515991 -0.58203125 0.375
0.464285671710968018 -0.42578125 0.40234375
0.535714268684387207 -0.32421875 0.453125
0.714285731315612793 -5.32274907743407466e-13 0.363281220197677612
0.383928567171096802 0.312500029802322388 0.328125
0.187500014901161194 0.13671875 0.53515625
-0.0267857164144515991 -0.574218809604644775 0.359375
0.741071403026580811 0.0078125 0.32421875
0.766591966152191162 0.0536141358315944672 0.110506050288677216
0.160714283585548401 -0.53515625 0.371093720197677612
0.366071492433547974 0.261718809604644775 0.4296875
0.196428567171096802 0.12890625 0.54296875
0.508928596973419189 -0.40234375 0.37890625
0.446428596973419189 0.281249970197677612 0.31640625
0.116071425378322601 0.109375 0.574218869209289551
0.383928567171096802 0.312499970197677612 0.32421875
0.0714285746216773987 0.05078125 0.59765625
0.776785731315612793 0.0722000673413276672 0.0775083005428314209
0.0178571436554193497 0.03125 0.60546875
-0.124999985098838806 -0.585937440395355225 0.35546875
0.820569872856140137 0.0318564735352993011 0.158158212900161743
0.714285731315612793 -1.37390532978232116e-12 0.36328125
0.214285716414451599 0.171875 0.51953125
0.446428567171096802 0.28125 0.31640625
0.678571403026580811 -0.0078125 0.38671875
0.687500059604644775 -0.22265625 0.316406279802322388
0.767857134342193604 -0.0592447929084300995 0.2578125
0.455357134342193604 -0.421875 0.39453125
0.741071403026580811 -0.0117187518626451492 0.21351875364780426
0.791119694709777832 0.101403079926967621 0.0780740603804588318
0.714285731315612793 -5.3424734254570172e-13 0.36328125
0.196428567171096802 0.171875014901161194 0.515625
0.732142865657806396 0.00390625 0.3359375
0.633928656578063965 -0.281738251447677612 0.37060546875
0.787317454814910889 0.0413098931312561035 0.131342411041259766
0.741071403026580811 5.54570983319485622e-13 0.328125
0.732142865657806396 -0.00390625 0.355468720197677612
-0.169642850756645203 -0.57421875 0.375
0.25 0.2109375 0.49609375
0.696428596973419189 -0.01171875 0.3828125
-0.196428552269935608 -0.578124940395355225 0.382812470197677612
0.651785671710968018 -0.265625029802322388 0.33984375
0.142857149243354797 -0.5390625 0.37890625
0.544642865657806396 -0.3203125 0.4453125
0.00892857275903224945 0.0234375 0.60546875
0.116071425378322601 0.10546875 0.57421875
0.374999970197677612 0.269531190395355225 0.4296875
0.544642865657806396 -0.3203125 0.4453125
-0.089285731315612793 -0.58984375 0.36328125
-0.214285716414451599 -0.574218809604644775 0.3828125
0.517857134342193604 0.265625 0.342447906732559204
0.4375 -0.44921875 0.3828125
-0.196428567171096802 -0.578125 0.3828125
-0.0625 -0.578125 0.3671875
0.732142865657806396 0.01171875 0.285156220197677612
0.0803571417927742004 -0.55859375 0.375
0.0714285746216773987 0.0390624962747097015 0.605468809604644775
-0.0982142835855484009 -0.5859375 0.359375
0.446428567171096802 0.29296875 0.30859375
0.714285731315612793 -0.01171875 0.375
-1.76741997773288695e-12 0.0234375 0.609375
0.285714298486709595 -0.507812559604644775 0.40234375
0.714285731315612793 -0.151041671633720398 0.296874970197677612
0.241071432828903198 -0.515624940395355225 0.40234375
0.553571403026580811 -0.32421875 0.4375
0.0267857145518064499 0.02734375 0.609375
0.303571432828903198 0.23828125 0.48046875
0.705357134342193604 -0.01171875 0.375
0.669642865657806396 -0.0234375 0.4140625
0.517857134342193604 -0.33203125 0.46484375
0.214285716414451599 -0.535156190395355225 0.375
0.321428567171096802 -0.48046875 0.41015625
0.732142865657806396 0.00390625 0.34765625
0.0982142835855484009 0.06640625 0.59765625
0.303571432828903198 -0.48828125 0.39453125
0.786797940731048584 0.058994438499212265 0.104492112994194031
0.523064315319061279 0.262180715799331665 0.308722019195556641
0.589285731315612793 -0.32421875 0.367187470197677612
0.0178571436554193497 -0.578125 0.36328125
0.133928582072257996 -0.55078125 0.3828125
0.303571432828903198 -0.5 0.40234375
0.535714268684387207 -0.32421875 0.453125
0.125 -0.55078125 0.378906220197677612
0.47321435809135437 -0.421875029802322388 0.37890625
-0.0982142835855484009 -0.58203125 0.36328125
0.419642865657806396 -0.453125 0.39453125
0.75 -0.0241655651479959488 0.242906630039215088
-0.125 -0.59375 0.36328125
0.732142865657806396 0.00390625 0.34765625
0.258928567171096802 -0.51953125 0.41015625
0.723214328289031982 -0.12109375 0.3125
0.598214209079742432 0.21875 0.277343720197677612
0.0357142873108386993 -0.574218630790710449 0.3671875
0.75 -0.113868765532970428 0.293719053268432617
0.241071432828903198 -0.5234375 0.406250059604644775
0.241071432828903198 -0.515625059604644775 0.40234375
0.732142865657806396 0.00390625 0.34375
0.455357134342193604 -0.417968720197677612 0.38671875
0.473214298486709595 -0.4296875 0.394531220197677612
0.401785701513290405 -0.449218720197677612 0.3828125
0.125 -0.546875 0.390625
0.473214298486709595 -0.4296875 0.3828125
0.455357134342193604 -0.43359375 0.3984375
0.401785701513290405 -0.44921875 0.382812470197677612
0.464285701513290405 0.26171875 0.367187470197677612
0.267857104539871216 -0.5078125 0.40234375
0.732142865657806396 0.00390625 0.296875
0.491071432828903198 -0.40234375 0.39453125
0.517857134342193604 -0.328125 0.4609375
0.294642865657806396 -0.488281279802322388 0.40234375
0.205357149243354797 -0.52734375 0.3828125
0.692442536354064941 0.120505034923553467 0.189921945333480835
0.571428596973419189 -0.3203125 0.43359375
0.294642865657806396 -0.503906369209289551 0.41015625
0.0625 0.05078125 0.60546875
0.455357134342193604 -0.425781309604644775 0.40234375
0.428571432828903198 -0.4375 0.39453125
-0.178571432828903198 -0.578125 0.378906220197677612
0.75 6.98680425580827658e-13 0.3359375
0.366071432828903198 -0.4765625 0.40234375
0.205357149243354797 0.175781235098838806 0.5078125
-0.3125 -0.55859375 0.37109375
0.223214298486709595 0.203125 0.515625
0.258928567171096802 -0.503906309604644775 0.41015625
0.741071403026580811 -1.45168434564912907e-11 0.2890625
0.651785731315612793 0.13671875 0.197916686534881592
-0.0714285746216773987 -0.578125 0.36328125
0.428571462631225586 0.273437470197677612 0.38671875
0.482142865657806396 0.2734375 0.37109375
0.0982142835855484009 0.05859375 0.59765625
0.705357134342193604 -0.1318359375 0.3095703125
0.625 -0.0546875 0.20703125
0.116071425378322601 0.09375 0.5859375
0.75 0.0078125 0.28125
-0.0714285671710968018 -0.578125 0.36328125
0.160714283585548401 0.109375 0.5546875
0.401785701513290405 0.30859375 0.32421875
0.133928567171096802 -0.55078125 0.3828125
-0.1875 -0.5703125 0.3828125
0.196428567171096802 -0.5390625 0.3828125
0.625 -0.0546875 0.214843735098838806
-0.267857074737548828 -0.578125 0.37109375
0.6875 -0.222656235098838806 0.3203125
0.151785731315612793 -0.53515625 0.37109375
0.669642865657806396 -0.01171875 0.398437470197677612
0.750060617923736572 -0.0196560826152563095 0.234153211116790771
0.455357134342193604 -0.421875 0.39453125
0.732142925262451172 -0.0703125074505805969 0.278320282697677612
0.321428567171096802 -0.48046875 0.41015625
0.0357142835855484009 -0.56640625 0.37109375
0.732142806053161621 -0.109374992549419403 0.308593720197677612
0.786649882793426514 0.0905768796801567078 0.142976045608520508
0.116071425378322601 0.08984375 0.58203125
0.258928567171096802 -0.51953125 0.41015625
0.6875 -0.0078125 0.39453125
0.0357142873108386993 0.0351562537252902985 0.609375
0.739393889904022217 0.128523007035255432 0.166167557239532471
-0.107142843306064606 -0.58984375 0.36328125
0.696428596973419189 -0.1484375 0.309895843267440796
0.666666686534881592 0.155598968267440796 0.184895828366279602
0.792393863201141357 0.0592005737125873566 0.170551389455795288
0.205357149243354797 -0.52734375 0.382812529802322388
-0.169642850756645203 -0.578125 0.3671875
0.517857134342193604 -0.39453125 0.386718720197677612
0.5 -0.40625 0.37890625
0.5 -0.40625 0.38671875
-0.196428582072257996 -0.578125 0.3828125
0.589285671710968018 0.2275390625 0.2490234375
0.508928596973419189 -0.3984375 0.375
0.0178571436554193497 0.03125 0.60546875
0.809619128704071045 0.0863524749875068665 0.120205581188201904
0.589285731315612793 -0.34765625 0.375
0.0267857145518064499 0.03125 0.609375
0.678571403026580811 -0.0078125 0.390625
0.151785716414451599 -0.5390625 0.37890625
0.758928596973419189 -0.0155986333265900612 0.223966717720031738
0.748750984668731689 -0.00650131842121481895 0.235819220542907715
0.741071403026580811 -0.13671875 0.3046875
-0.267857134342193604 -0.578125059604644775 0.37109375
0.50892871618270874 -0.3857421875 0.390625
0.696428537368774414 -0.173177078366279602 0.307291686534881592
0.419642865657806396 -0.453125 0.39453125
0.267857134342193604 -0.515625 0.41015625
-0.312499970197677612 -0.5625 0.3671875
0.348214298486709595 0.3203125 0.33984375
-0.196428567171096802 -0.578125 0.390625
0.732142925262451172 0.00390625 0.34765625
0.0803571417927742004 0.05078125 0.60546875
0.0714285746216773987 0.046875 0.59375
0.1875 0.17578125 0.531250119209289551
0.6875 -0.00390625 0.374999970197677612
0.0178571436554193497 0.03125 0.60546875
0.617357432842254639 0.19949871301651001 0.222405925393104553
0.678571403026580811 -0.199218735098838806 0.321614593267440796
-0.303571432828903198 -0.562500059604644775 0.371093630790710449
0.294642865657806396 -0.503906309604644775 0.40625
0.482142865657806396 0.265625 0.37890625
0.142857149243354797 -0.54296875 0.3828125
0.285714298486709595 -0.5078125 0.398437440395355225
-0.267857164144515991 -0.58203125 0.375
-0.312499970197677612 -0.5625 0.3671875
0.491071432828903198 0.273437470197677612 0.304687470197677612
0.660714209079742432 -0.223437517881393433 0.342968761920928955
0.267857134342193604 -0.5078125 0.4140625
0.151785716414451599 -0.54296875 0.37109375
0.258928567171096802 -0.51953125 0.410156279802322388
0.571428596973419189 -0.343749970197677612 0.36328125
0.678571403026580811 -0.015625 0.40625
0.107142850756645203 0.098958335816860199 0.58203125
0.321428567171096802 0.26171875 0.44140625
0.758928596973419189 -0.0254396982491016388 0.222700938582420349
0.0178571436554193497 0.02734375 0.6171875
-0.267857193946838379 -0.578125 0.37109375
0.0892857089638710022 0.0625 0.6015625
0.205357149243354797 0.171875 0.53515625
0.366071432828903198 -0.46484375 0.390625
0.330357134342193604 -0.4765625 0.39453125
0.267857134342193604 -0.515625 0.41015625
0.223214283585548401 -0.53125 0.39453125
-0.294642835855484009 -0.57421875 0.37109375
0.133928567171096802 0.11328125 0.578124940395355225
0.205357149243354797 0.16015625 0.52734375
0.598214209079742432 -0.25390625 0.30859375
0.241071432828903198 -0.5078125 0.40234375
0.223214298486709595 -0.5234375 0.390625
0.1071428582072258 0.078125 0.585937440395355225
0.823046684265136719 0.0299284271895885468 0.18719269335269928
0.589285731315612793 0.23046875 0.286458313465118408
-0.0357142873108386993 -0.57421875 0.3671875
0.741071343421936035 -0.119977682828903198 0.306361615657806396
0.339285701513290405 0.258567214012145996 0.430556267499923706
0.294642865657806396 -0.4921875 0.41015625
0.348214328289031982 0.2578125 0.43359375
-0.196428567171096802 -0.5703125 0.378906279802322388
0.723214268684387207 -0.12890625 0.31640625
0.0535714253783226013 -0.56640625 0.37109375
0.285714268684387207 -0.50390625 0.3984375
0.232142850756645203 0.20703125 0.50390625
0.285714298486709595 -0.5 0.398437529802322388
-0.285714298486709595 -0.578125 0.36328125
0.0625 -0.5703125 0.37890625
0.553571403026580811 0.2294921875 0.2802734375
0.678571403026580811 -0.015625 0.406250029802322388
0.294642865657806396 -0.4921875 0.41015625
-0.196428567171096802 -0.570312440395355225 0.378906309604644775
0.0803571417927742004 -0.55859375 0.37890625
0.232142820954322815 0.19140625 0.51953125
0.169642865657806396 0.125 0.5625
0.303571462631225586 -0.5 0.402343720197677612
0.258928567171096802 -0.51953125 0.41015625
0.464285701513290405 0.2734375 0.367187470197677612
0.741071403026580811 0.00390625 0.34375
-0.124999992549419403 -0.5859375 0.35546875
0.267857134342193604 0.214843764901161194 0.50390625
0.535714268684387207 -0.33203125 0.457031220197677612
0.455357134342193604 -0.4296875 0.40234375
-0.330357193946838379 -0.554687559604644775 0.375
0.741071403026580811 0.0117187481373548508 0.3203125
0.357142865657806396 0.3203125 0.3359375
-0.0178571417927742004 -0.56640625 0.359374940395355225
0.401785701513290405 0.3046875 0.31640625
0.776803791522979736 0.0835687443614006042 0.0976806506514549255
0.241071432828903198 -0.5078125 0.40234375
0.616071403026580811 -0.323242217302322388 0.3720703125
-0.116071417927742004 -0.58984375 0.363281190395355225
0.348214298486709595 -0.472656279802322388 0.390625
-0.267857134342193604 -0.57421875 0.37109375
0.75 -0.0585937947034835815 0.2734375
-0.0535714253783226013 -0.57421875 0.37109375
0.741071403026580811 7.03502577373282811e-13 0.27734375
0.75 -0.0741952136158943176 0.285313993692398071
0.714285731315612793 -2.12774004144933304e-12 0.36328125
0.0714285746216773987 -0.55859375 0.38671875
-0.0625 -0.578125 0.3671875
0.704335570335388184 0.111245736479759216 0.172255963087081909
0.651743412017822266 0.173993766307830811 0.193369150161743164
0.557355105876922607 0.215334877371788025 0.268872290849685669
0.652075111865997314 0.11959422379732132 0.197125986218452454
0.00892857182770967484 0.02734375 0.60546875
0.196428582072257996 -0.52734375 0.375000029802322388
0.178571432828903198 0.1328125 0.5546875
0.633928596973419189 -0.0546874962747097015 0.208333328366279602
0.705357134342193604 -0.0078125 0.37109375
-0.196428567171096802 -0.5703125 0.37890625
0.258928567171096802 -0.5078125 0.40234375
0.598214328289031982 -0.309895813465118408 0.3984375
0.107142865657806396 0.0898437425494194031 0.58203125
0.696428596973419189 -0.0078125 0.375
0.383928567171096802 0.261718720197677612 0.419270843267440796
-0.0446428507566452026 -0.5703125 0.3671875
0.571428477764129639 -0.32421875 0.4375
-0.0267857145518064499 -0.578125 0.36328125
0.357142865657806396 -0.47265625 0.40625
0.4375 0.261718779802322388 0.389648467302322388
-0.0714285746216773987 -0.5859375 0.3671875
0.0803571417927742004 0.0546875 0.59765625
-0.0803571343421936035 -0.58203125 0.3671875
0.285714328289031982 0.226562514901161194 0.4765625
0.3125 0.23828125 0.4765625
0.759024441242218018 0.0512761436402797699 0.136437565088272095
0.330357134342193604 -0.48828125 0.39453125
0.535714268684387207 -0.3828125 0.38671875
0.151785716414451599 0.125 0.5546875
0.178571432828903198 0.14453125 0.53125
0.723214328289031982 -0.106445364654064178 0.276854485273361206
-0.160714268684387207 -0.58203125 0.36328125
0.1071428582072258 -0.5546875 0.37890625
0.258928567171096802 -0.50390625 0.40625
0.366071432828903198 -0.47265625 0.406250029802322388
0.133928537368774414 0.105468757450580597 0.566406130790710449
-0.25 -0.58203125 0.375
0.642857134342193604 -0.2578125 0.359375
-0.00892857275903224945 -0.570312619209289551 0.35546875
0.383928567171096802 -0.46484375 0.38671875
0.223214283585548401 -0.5234375 0.39453125
0.294642835855484009 0.2421875 0.4765625
0.3125 0.23046875 0.4765625
-0.0714285820722579956 -0.578125 0.36328125
0.383928567171096802 0.269531220197677612 0.421875
0.669642925262451172 -0.244791671633720398 0.3515625
-0.169642835855484009 -0.57421875 0.375
0.241071432828903198 -0.515625059604644775 0.40234375
-0.178571417927742004 -0.5703125 0.382812470197677612
0.588380575180053711 0.205466940999031067 0.254346787929534912
-0.169642850756645203 -0.578125 0.37109375
0.133928567171096802 0.10546875 0.5703125
0.732142806053161621 0.00390625 0.27734375
0.755962371826171875 0.0444825030863285065 0.198585405945777893
0.1071428582072258 0.08203125 0.59375
0.526785671710968018 0.261718779802322388 0.3427734375
0.553571403026580811 -0.328125 0.4375
-0.258928567171096802 -0.58203125 0.37109375
0.473215311765670776 -0.414062559604644775 0.378906220197677612
0.589285731315612793 -0.32421875 0.4140625
0.714285731315612793 1.42526005646008425e-13 0.36328125
0.732142865657806396 0.00390625 0.3359375
0.267857134342193604 -0.515625 0.41015625
0.0982142835855484009 0.05859375 0.59765625
0.125 0.10546875 0.5703125
0.196428567171096802 0.18359375 0.51953125
0.696428596973419189 -0.00390625 0.37890625
0.696448028087615967 0.0976477488875389099 0.180988967418670654
0.294642865657806396 -0.49609375 0.39453125
0.375 0.30859375 0.33203125
0.133928567171096802 0.10546875 0.566406369209289551
0.446428567171096802 -0.425781279802322388 0.398437529802322388
0.804140985012054443 0.0372874289751052856 0.193213760852813721
0.25 0.2109375 0.49609375
0.714285731315612793 -0.0078125 0.36328125
0.169642850756645203 0.12109375 0.561197876930236816
0.771219313144683838 0.0674492493271827698 0.152560323476791382
0.321428567171096802 -0.484375 0.39453125
0.0178571436554193497 0.03125 0.60546875
0.357142865657806396 -0.48046875 0.3984375
0.464285701513290405 -0.433593779802322388 0.38671875
0.589285731315612793 -0.316406279802322388 0.37890625
-0.107142873108386993 -0.5859375 0.3671875
0.696428596973419189 -0.143229171633720398 0.302083343267440796
0.0267857089638710022 -0.566406309604644775 0.37109375
0.741071403026580811 0.0078125 0.33203125
-0.3125 -0.56640625 0.37109375
-0.267857134342193604 -0.578125 0.37109375
0.401785701513290405 -0.4609375 0.3984375
0.535714209079742432 0.249023467302322388 0.33203125
0.660714268684387207 -0.2177734375 0.321289032697677612
0.589285731315612793 -0.26171875 0.30859375
0.473214298486709595 -0.421875119209289551 0.37890625
0.1875 0.14453125 0.550781309604644775
0.1875 0.16796875 0.51953125
-0.196428567171096802 -0.578125 0.38671875
0.741071343421936035 -0.0791015625 0.289062529802322388
0.616071403026580811 -0.2890625 0.36328125
0.741071403026580811 0.0078125 0.33984375
0.160714283585548401 0.13671875 0.55078125
0.0714285746216773987 0.046875 0.59375
0.767857074737548828 -0.0520833432674407959 0.244791656732559204
0.098214276134967804 -0.55078125 0.3828125
0.830062031745910645 0.0760023072361946106 0.0965678617358207703
0.276785731315612793 -0.51171875 0.410156220197677612
-0.0357143059372901917 -0.578124880790710449 0.367187559604644775
0.366071432828903198 0.31640625 0.335937529802322388
0.607142865657806396 -0.24609375 0.308593779802322388
0.723214268684387207 -0.0859375074505805969 0.28515625
0.732142865657806396 0.00390625 0.2890625
0.723214268684387207 -0.16796875 0.310670644044876099
-0.25 -0.58203125 0.374999970197677612
0.589285671710968018 -0.32421875 0.4140625
0.294642865657806396 -0.49609375 0.4140625
0.241071432828903198 -0.5234375 0.39453125
0.589285731315612793 -0.2578125 0.3046875
0.419642865657806396 -0.44140625 0.39453125
0.0803571417927742004 0.0546875037252902985 0.59765625
0.0982142835855484009 -0.55859375 0.390625029802322388
-0.294642895460128784 -0.574218809604644775 0.3671875
0.0892857164144515991 0.0585937537252902985 0.59765625
0.642857253551483154 -0.222656279802322388 0.3125
-0.0803571417927742004 -0.58203125 0.3671875
0.750000059604644775 0.00781250093132257462 0.32421875
0.741071403026580811 0.00390625 0.30859375
0.678571343421936035 -0.03515625 0.20703125
0.169642850756645203 0.13671875 0.5546875
0.580357134342193604 -0.32421875 0.4296875
0.714285671710968018 -0.116406247019767761 0.31015622615814209
0.562500059604644775 0.234375029802322388 0.272135406732559204
0.00892857182770967484 0.015625 0.60546875
0.223214283585548401 -0.5234375 0.39453125
0.267857134342193604 -0.515624940395355225 0.41015625
0.473214298486709595 -0.4296875 0.3828125
0.276785701513290405 -0.49609375 0.40625
0.817845761775970459 0.0683944299817085266 0.0965056344866752625
-0.107142865657806396 -0.58984375 0.359375
0.0982142835855484009 0.06640625 0.59765625
0.607142865657806396 -0.25390625 0.3125
0.1071428582072258 -0.5546875 0.37890625
0.1875 0.16796875 0.53125
0.598214209079742432 -0.30859375 0.386718720197677612
0.428571432828903198 0.289062529802322388 0.3046875
0.339285701513290405 -0.4765625 0.390625
0.0446428582072257996 0.04296875 0.609375
0.651785671710968018 -0.27734375 0.361979186534881592
0.553571403026580811 -0.32421875 0.44921875
-0.330357134342193604 -0.5546875 0.37890625
0.0892857164144515991 -0.5625 0.38671875
0.223214268684387207 0.183593779802322388 0.519531309604644775
0.799686968326568604 0.0327079370617866516 0.122794479131698608
0.0178571436554193497 -0.5703125 0.36328125
0.366071432828903198 -0.472656279802322388 0.40625
0.455357104539871216 -0.4296875 0.37890625
0.0535714291036128998 0.04296875 0.609375
0.401785701513290405 -0.453125 0.398437470197677612
0.473214298486709595 -0.421875 0.37890625
0.419642865657806396 -0.453125 0.39453125
0.491071432828903198 -0.40625 0.37890625
0.616071522235870361 -0.2890625 0.36328125
0.357142865657806396 -0.480468720197677612 0.3984375
0.339285671710968018 -0.4765625 0.390625
0.321428567171096802 -0.484375 0.39453125
0.187499985098838806 0.17578125 0.535156190395355225
-0.330357134342193604 -0.55859375 0.37890625
0.660714268684387207 -0.04296875 0.21484375
0.133928567171096802 -0.5546875 0.3828125
0.625 -0.0546875 0.2109375
-0.178571432828903198 -0.5703125 0.3828125
0.214285731315612793 0.199218764901161194 0.51171875
0.482142865657806396 0.265625029802322388 0.35546875
0.758928596973419189 -0.0908203125 0.2724609375
0.133928567171096802 -0.55078125 0.3828125
0.669642865657806396 -0.0234375 0.4140625
0.612564802169799805 0.191858246922492981 0.240534499287605286
0.651785731315612793 -0.281249940395355225 0.34765625
0.741071462631225586 -0.135416671633720398 0.300781220197677612
0.732142865657806396 0.00390625 0.3359375
0.285714298486709595 -0.50390625 0.3984375
0.589285731315612793 -0.3203125 0.40234375
0.580357074737548828 -0.32421875 0.4296875
0.0267857145518064499 0.02734375 0.609375
0.446428567171096802 0.270833313465118408 0.397135406732559204
0.544642865657806396 -0.3515625 0.37890625
0.446428567171096802 -0.4375 0.37890625
0.705357134342193604 -0.01953125 0.21484375
0.714285731315612793 -0.015625 0.20703125
-0.285714298486709595 -0.57421875 0.367187470197677612
0.339285701513290405 0.273193717002868652 0.453868716955184937
0.75 -0.117158696055412292 0.293104320764541626
0.589285731315612793 -0.34765625 0.375
0.151785716414451599 0.125 0.5546875
0.660714209079742432 -0.23046875 0.31640625
0.669642865657806396 -0.015625 0.41015625
0.241071432828903198 -0.515625 0.4140625
0.214285701513290405 0.19921875 0.515625
0.642857134342193604 -0.2265625 0.308593779802322388
0.0267857164144515991 -0.57421875 0.37109375
0.723214328289031982 -0.0859375 0.26953125
0.5625 -0.3203125 0.44140625
-0.267857134342193604 -0.578125 0.3671875
0.598214328289031982 -0.30859375 0.3671875
0.330357134342193604 -0.484375 0.41015625
0.241071432828903198 -0.519531309604644775 0.421875
0.517857134342193604 0.26171875 0.32421875
0.348214298486709595 -0.47265625 0.40625
0.571428537368774414 0.2236328125 0.26171875
0.0178571417927742004 -0.578125 0.36328125
0.464285701513290405 -0.4140625 0.38671875
0.383928567171096802 -0.472656190395355225 0.39453125
0.258928537368774414 -0.51953125 0.402343779802322388
0.142857134342193604 0.121093742549419403 0.55859375
0.473214298486709595 -0.41015625 0.38671875
0.303571432828903198 0.238281235098838806 0.480468720197677612
-0.0625 -0.58203125 0.36328125
-0.339285731315612793 -0.55859375 0.374999970197677612
0.410714298486709595 -0.44921875 0.3984375
0.276785701513290405 -0.50390625 0.4140625
0.799200892448425293 -0.0339354164898395538 0.202577769756317139
0.294642865657806396 0.2265625 0.472656279802322388
0.464285701513290405 -0.41796875 0.37890625
0.0714285746216773987 0.05078125 0.59765625
-0.330357134342193604 -0.5546875 0.375
0.366071432828903198 0.31640625 0.328125
0.294642865657806396 -0.50390625 0.40234375
0.276785671710968018 0.2265625 0.488281279802322388
-0.1875 -0.5703125 0.382812470197677612
0.598214268684387207 -0.25390625 0.308593720197677612
0.544642865657806396 -0.37890625 0.3828125
0.580357134342193604 -0.32421875 0.41015625
0.616071403026580811 -0.277343720197677612 0.359374970197677612
0.732142865657806396 0.00390625 0.28125
0.5625 -0.328125 0.4375
0.223214283585548401 0.17578125 0.515625
0.4375 0.28515625 0.30859375
0.401785701513290405 -0.4453125 0.390625
0.75 0.0078125 0.32421875
0.24107147753238678 -0.51171875 0.4140625
0.196428567171096802 -0.52734375 0.374999970197677612
0.232142850756645203 0.1875 0.515625
0.133928567171096802 0.1015625 0.578125
-0.142857149243354797 -0.58984375 0.359375
0.0446428582072257996 0.04296875 0.609375
-0.160714313387870789 -0.578125 0.36328125
-0.196428552269935608 -0.578125 0.382812470197677612
0.133928552269935608 0.11328125 0.578125
0.196428567171096802 0.171875 0.51953125
0.383928567171096802 -0.4609375 0.40234375
0.0982142910361289978 0.09375 0.5859375
0.589285731315612793 -0.351562440395355225 0.37890625
0.017857138067483902 -0.57421875 0.359374970197677612
0.598214328289031982 -0.3359375 0.3828125
0.455357134342193604 -0.4375 0.37890625
0.464285701513290405 -0.4296875 0.40234375
0.813888370990753174 0.0611463002860546112 0.116556279361248016
0.0357142873108386993 -0.57421875 0.37109375
0.821828007698059082 0.0574756339192390442 0.181644394993782043
0.366071432828903198 0.31640625 0.328125
0.5 0.257812529802322388 0.33984375
-0.0625 -0.58203125 0.36328125
0.151785731315612793 0.12109375 0.56640625
-0.258928567171096802 -0.58203125 0.37109375
0.178571432828903198 0.14453125 0.53125
0.544642865657806396 -0.37890625 0.375
0.75 0.0078125 0.29296875
0.1071428582072258 0.07421875 0.59765625
0.241071432828903198 -0.5078125 0.40625
0.6875 -0.170898452401161194 0.320312529802322388
0.580357074737548828 0.214843764901161194 0.278906255960464478
0.741071403026580811 -0.121093735098838806 0.289064019918441772
0.732142925262451172 0.00260416674427688122 0.253906279802322388
0.633928596973419189 -0.265625 0.3466796875
0.732142865657806396 -0.015625 0.2109375
-0.00892857275903224945 -0.5703125 0.3671875
0.383928567171096802 0.3046875 0.328125
0.473214298486709595 0.282552063465118408 0.302083343267440796
0.535714268684387207 -0.3828125 0.375
-0.285714328289031982 -0.578125 0.36328125
0.312500029802322388 0.25 0.4375
0.00892857089638710022 0.01953125 0.61328125
0.339285701513290405 -0.484375 0.41015625
0.294642865657806396 -0.503906190395355225 0.41015625
-0.00892857182770967484 -0.570312559604644775 0.3671875
0.258928567171096802 -0.51953125 0.40234375
0.348214298486709595 -0.468749970197677612 0.402343779802322388
-0.232142865657806396 -0.58203125 0.3828125
0.366071432828903198 -0.4765625 0.40234375
2.27970897367923975e-12 0.01953125 0.61328125
0.651785731315612793 -0.276041686534881592 0.343750029802322388
0.133928567171096802 -0.55078125 0.3828125
0.705357074737548828 -0.17578125 0.308593720197677612
0.785305380821228027 0.0338836312294006348 0.171824216842651367
0.455357134342193604 -0.437500029802322388 0.37890625
0.419642865657806396 -0.44921875 0.3984375
0.723214268684387207 -0.0078125 0.3515625
0.508928596973419189 0.256510406732559204 0.33203125
0.616156458854675293 0.204136937856674194 0.212116196751594543
0.151785731315612793 -0.53515625 0.375
0.517857134342193604 -0.328125 0.46484375
0.401785701513290405 -0.4609375 0.3984375
0.0178571455180644989 -0.5703125 0.36328125
-0.330357134342193604 -0.55859375 0.37109375
0.401785701513290405 -0.4609375 0.3984375
0.5625 -0.3203125 0.44140625
0.392857134342193604 -0.46484375 0.3984375
0.00892857275903224945 0.01171875 0.61328125
0.294642865657806396 -0.488281279802322388 0.40234375
0.686665713787078857 0.130831420421600342 0.170630589127540588
-0.232142865657806396 -0.58203125 0.3828125
0.607142865657806396 -0.25390625 0.3125
-0.0267857145518064499 -0.57421875 0.359375
0.580357134342193604 -0.3515625 0.3671875
0.758928596973419189 -0.0183176100254058838 0.217772781848907471
0.383928537368774414 -0.46875 0.40234375
0.607142925262451172 -0.335937529802322388 0.37109375
0.767857074737548828 -0.03515625 0.255208224058151245
0.482142865657806396 -0.42578125 0.3828125
-0.330357134342193604 -0.5546875 0.37109375
0.178571432828903198 0.1640625 0.53515625
0.616071403026580811 -0.24609375 0.3125
0.580357193946838379 0.23828125 0.285937517881393433
0.258928596973419189 0.19921875 0.5078125
0.276785701513290405 -0.49609375 0.40625
-0.232142835855484009 -0.582031190395355225 0.3828125
0.455357134342193604 -0.4375 0.390625
0.0892857164144515991 0.05859375 0.60546875
0.1071428582072258 -0.55078125 0.37890625
0.651785731315612793 -0.25 0.35546875
-0.160714283585548401 -0.578125 0.36328125
0.160714283585548401 0.125 0.5625
0.580357193946838379 0.23330707848072052 0.29369625449180603
0.793004751205444336 0.0576192289590835571 0.0563406459987163544
0.723214089870452881 -0.163613468408584595 0.308019578456878662
0.294642865657806396 0.243489563465118408 0.46875
0.446428567171096802 -0.44140625 0.39453125
0.0625 0.04296875 0.601562619209289551
0.0267857164144515991 0.03125 0.61328125
0.589285731315612793 -0.33984375 0.3828125
0.178571447730064392 0.152343735098838806 0.546875
-0.0267857126891613007 -0.5703125 0.3671875
0.285714298486709595 -0.50390625 0.398437559604644775
0.741071403026580811 0.07421875 0.171797499060630798
0.482142865657806396 0.27734375 0.3046875
0.741071403026580811 0.01171875 0.2734375
0.321428567171096802 -0.48828125 0.39453125
0.607142925262451172 0.216867908835411072 0.270454317331314087
0.178571447730064392 0.15625 0.5390625
0.70537412166595459 0.109386511147022247 0.191421106457710266
0.419642835855484009 0.272135406732559204 0.390625
0.633928596973419189 -0.23046875 0.3125
-0.196428552269935608 -0.578125 0.390625
0.392857134342193604 -0.46875 0.390625
0.214285716414451599 0.1640625 0.53515625
0.517857134342193604 0.257812470197677612 0.32421875
0.455357134342193604 0.2890625 0.3125
0.714285731315612793 -0.01171875 0.375
0.383928567171096802 -0.47265625 0.39453125
0.446428567171096802 0.292968720197677612 0.30859375
0.544642865657806396 0.238281235098838806 0.28515625
0.767857193946838379 -0.0240885410457849503 0.246744781732559204
0.535714268684387207 -0.375 0.37109375
0.544642806053161621 -0.3203125 0.4453125
0.232142835855484009 0.187499985098838806 0.51171875
0.375000029802322388 -0.46484375 0.38671875
0.732142865657806396 -0.0664062574505805969 0.257812470197677612
0.732142865657806396 0.00390625 0.3359375
0.63645637035369873 0.194346845149993896 0.199828341603279114
0.258928567171096802 0.207031264901161194 0.5078125
0.151785716414451599 0.109375 0.55859375
0.205357149243354797 0.160156235098838806 0.5390625
0.517857134342193604 0.25 0.320312470197677612
0.1875 0.1640625 0.515625119209289551
0.330357134342193604 0.25390625 0.4609375
0.25 -0.507812559604644775 0.41015625
0.1875 -0.53515625 0.37890625
0.508928596973419189 0.265625 0.339843779802322388
0.241071432828903198 -0.51171875 0.41796875
0.401785701513290405 0.276562482118606567 0.398437470197677612
0.794746100902557373 0.089283280074596405 0.113375678658485413
0.78413766622543335 0.0706814751029014587 0.0616367422044277191
0.241071432828903198 -0.52734375 0.39453125
0.276785701513290405 -0.49609375 0.41015625
0.446428567171096802 -0.42578125 0.38671875
0.705357134342193604 -0.140625 0.3203125
0.0803571343421936035 -0.5546875 0.38671875
0.1875 -0.53515625 0.37890625
0.3125 -0.484375 0.41015625
0.732142865657806396 0.00390625 0.34765625
0.330357134342193604 -0.4765625 0.40625
-0.25892716646194458 -0.578125059604644775 0.375
0.0357142873108386993 -0.57421875 0.37109375
0.562500059604644775 -0.328125 0.43359375
-0.285714298486709595 -0.578125 0.36328125
0.633928596973419189 -0.27734375 0.34375
0.669642865657806396 -0.015625 0.41015625
0.767857074737548828 -0.0648437440395355225 0.271093785762786865
0.500000059604644775 -0.394531220197677612 0.376302063465118408
0.544642806053161621 -0.33203125 0.44921875
0.741071403026580811 0.0117187490686774254 0.29296875
0.1875 0.1640625 0.539062440395355225
0.723214328289031982 -0.102864384651184082 0.290364742279052734
0.714285731315612793 -0.0078125 0.36328125
0.401785701513290405 -0.4609375 0.3984375
0.125 0.1171875 0.56640625
0.491071432828903198 -0.3984375 0.378906279802322388
-0.160714268684387207 -0.57421875 0.37109375
-0.303571432828903198 -0.56640625 0.3671875
0.705355703830718994 0.0937590822577476501 0.178707852959632874
0.169642835855484009 0.14453125 0.540364563465118408
0.455357134342193604 0.28515625 0.31640625
-0.0446428544819355011 -0.5703125 0.363281279802322388
0.205357149243354797 0.171875 0.511718809604644775
0.598214268684387207 -0.3203125 0.3984375
0.330357134342193604 -0.4765625 0.40625
0.330357134342193604 -0.4765625 0.406250029802322388
0.741071403026580811 -0.00390625 0.34765625
0.205357149243354797 -0.52734375 0.3828125
0.75 0.00781249953433871269 0.28125
0.755357146263122559 -0.0476562529802322388 0.262500017881393433
0.714285731315612793 -0.174479171633720398 0.328125029802322388
0.0714285746216773987 0.046875 0.59375
-0.0178571436554193497 1.03076585895173212e-12 0.61328125
-0.285714298486709595 -0.574218809604644775 0.3671875
0.687500059604644775 -0.17578125 0.313802152872085571
0.705357134342193604 -0.01171875 0.2109375
0.294642865657806396 -0.488281220197677612 0.40234375
0.589285671710968018 0.2265625 0.2822265625
0.616071462631225586 -0.0625 0.209635406732559204
0.526785612106323242 -0.33203125 0.4609375
0.446428567171096802 -0.421875 0.38671875
-0.330357134342193604 -0.5546875 0.37890625
0.285714298486709595 0.222656264901161194 0.4765625
0.80850684642791748 0.0357029959559440613 0.171681568026542664
0.116071425378322601 -0.54296875 0.37890625
-0.0982142910361289978 -0.585937559604644775 0.359375
-0.267857193946838379 -0.578125 0.3671875
0.196428596973419189 0.15625 0.541992127895355225
-0.169642850756645203 -0.57421875 0.375
0.4375 0.262500017881393433 0.396093785762786865
0.75 0.0078125 0.29296875
0.151785701513290405 -0.5390625 0.378906279802322388
-0.116071425378322601 -0.58984375 0.36328125
0.633928596973419189 -0.2890625 0.34765625
0.562499940395355225 0.251302063465118408 0.295572906732559204
0.607142865657806396 -0.24609375 0.31640625
0.125 -0.55078125 0.38671875
-0.125 -0.593749880790710449 0.36328125
0.696437478065490723 0.117215879261493683 0.167970269918441772
0.205357149243354797 0.15625 0.523437440395355225
0.0803571417927742004 -0.56640625 0.37890625
0.0892857164144515991 -0.5625 0.386718720197677612
0.00892857182770967484 0.015625 0.60546875
-0.196428552269935608 -0.578125 0.38671875
0.455357104539871216 -0.4296875 0.40625
0.705357134342193604 -0.12890625 0.31640625
0.741071403026580811 0.0078125 0.33203125
0.142857149243354797 0.10546875 0.56640625
0.616071403026580811 -0.25 0.3125
0.214285716414451599 0.1640625 0.53515625
0.723214268684387207 -0.155427441000938416 0.316422522068023682
0.741071403026580811 0.00390625 0.3046875
0.589285790920257568 -0.26171875 0.30859375
-0.187499985098838806 -0.5703125 0.3828125
-0.0803571417927742004 -0.58203125 0.3671875
0.428571432828903198 0.289062559604644775 0.32421875
0.294642865657806396 -0.50390625 0.41015625
-0.25 -0.58203125 0.375
0.437499970197677612 -0.44921875 0.3828125
0.196428567171096802 -0.5390625 0.3828125
0.678571403026580811 -0.0078125 0.38671875
0.78194582462310791 0.0921447426080703735 0.0828292593359947205
0.0178571436554193497 0.0273437518626451492 0.6171875
0.196428567171096802 0.1796875 0.53125
0.410714298486709595 -0.45703125 0.3828125
0.482142865657806396 -0.421875 0.38671875
-0.196428567171096802 -0.5703125 0.37890625
0.732142925262451172 0.00390625 0.28125
0.133928596973419189 -0.5546875 0.3828125
0.473214298486709595 -0.40625 0.39453125
-0.285714268684387207 -0.57421875 0.367187559604644775
0.669642865657806396 -0.0390625037252902985 0.21875
-0.1875 -0.5703125 0.3828125
-0.294642835855484009 -0.57421875 0.37109375
0.714285731315612793 -0.171875 0.3125
-0.00892857089638710022 -0.00390625 0.61328125
0.223214283585548401 0.17578125 0.515625
0.616071403026580811 -0.23828125 0.3125
0.241071432828903198 -0.523437440395355225 0.40625
0.294642865657806396 -0.4921875 0.3984375
-0.0803571492433547974 -0.578125059604644775 0.3671875
0.669642865657806396 -0.0234375 0.4140625
-0.294642865657806396 -0.57421875 0.3671875
0.741071403026580811 3.49471666882816834e-11 0.2890625
0.669642865657806396 -0.01953125 0.410156220197677612
-0.25 -0.58203125 0.375000029802322388
0.410714298486709595 -0.4609375 0.390625
0.0357142873108386993 -0.56640625 0.37109375
0.749808549880981445 -0.104888148605823517 0.277266889810562134
0.723214268684387207 -0.154671341180801392 0.300737351179122925
0.0714285746216773987 0.05078125 0.60546875
0.660714268684387207 -0.23046875 0.34765625
0.1875 -0.53125 0.37890625
0.741071343421936035 0.0078125 0.31640625
0.508928596973419189 -0.38671875 0.375
0.276785701513290405 0.20703125 0.4921875
0.642857134342193604 -0.27734375 0.367187470197677612
0.607142865657806396 -0.3359375 0.377604156732559204
0.589285790920257568 -0.316406279802322388 0.373883932828903198
0.241071432828903198 -0.5234375 0.39453125
0.151785731315612793 -0.535156190395355225 0.375
0.730514049530029297 0.112580716609954834 0.18389970064163208
0.0357142910361289978 -0.57421875 0.37109375
0.741071403026580811 0.01171875 0.26953125
-0.0267857145518064499 -0.5703125 0.367187470197677612
0.473214298486709595 -0.406249970197677612 0.390625
0.464285701513290405 0.2734375 0.3671875
0.1875 0.13671875 0.53515625
0.178571432828903198 0.140625 0.53125
0.214285701513290405 0.175781279802322388 0.5078125
0.696428596973419189 -0.0078125 0.375
0.607142806053161621 -0.330729156732559204 0.3671875
0.0625 -0.5703125 0.37890625
0.0535714328289031982 0.0390625 0.609375
0.535714268684387207 -0.33203125 0.44921875
0.0267861634492874146 -0.570311903953552246 0.371093630790710449
-0.133928567171096802 -0.5859375 0.36328125
0.660714268684387207 -0.0390625 0.2109375
0.205357134342193604 -0.5390625 0.378906220197677612
0.214285716414451599 -0.5234375 0.38671875
0.544642865657806396 0.256835907697677612 0.3203125
0.0267857145518064499 0.0390625037252902985 0.609375
0.6875 0.13399149477481842 0.193151161074638367
0.25 0.21484375 0.50390625
0.473214298486709595 -0.42578125 0.37890625
-0.178571417927742004 -0.574218809604644775 0.37109375
-0.178571432828903198 -0.578125 0.37890625
0.598214268684387207 -0.25390625 0.30859375
-0.303571462631225586 -0.5625 0.37109375
0.205357149243354797 -0.52734375 0.3828125
0.0535714291036128998 -0.56640625 0.3671875
0.187499985098838806 -0.53125 0.37890625
0.741071462631225586 0.00390625 0.34375
0.267857134342193604 -0.5078125 0.40234375
0.526785731315612793 -0.390625 0.386718720197677612
0.178571417927742004 -0.54296875 0.37109375
0.678571403026580811 -0.01171875 0.3984375
0.678571403026580811 -0.1953125 0.328125
0.714285731315612793 -0.00390625 0.37109375
0.553571343421936035 -0.32421875 0.4375
0.169642850756645203 0.117187485098838806 0.546875
-0.0446428656578063965 -0.5703125 0.36328125
0.00892857182770967484 -0.57421875 0.359375
-0.339285701513290405 -0.5546875 0.37890625
0.732142865657806396 0.00781250093132257462 0.26953125
0.625 -0.0703124850988388062 0.207031264901161194
0.401785701513290405 -0.453125 0.3984375
0.339285701513290405 -0.484375 0.39453125
0.714285731315612793 -0.0156249981373548508 0.218750014901161194
-0.276785701513290405 -0.57421875 0.3671875
0.75 0.01171875 0.28515625
0.044642861932516098 -0.5703125 0.375
0.696428596973419189 -0.00390625 0.37890625
0.589285850524902344 -0.3125 0.40625
0.125 0.1015625 0.578125
0.669642925262451172 -0.204427093267440796 0.333333313465118408
0.633928537368774414 -0.27734375 0.34375
0.0178571417927742004 0.0195312518626451492 0.609375
0.669642865657806396 -0.226562514901161194 0.31640625
0.669642865657806396 -0.2265625 0.3125
0.642857253551483154 -0.28515625 0.347656190395355225
0.660714268684387207 -0.25390625 0.35546875
0.0357142873108386993 0.03515625 0.60546875
-0.0178571455180644989 1.07839410144749959e-12 0.61328125
0.142857149243354797 -0.5390625 0.37109375
0.642857134342193604 -0.296874970197677612 0.362304717302322388
0.732142806053161621 -1.18639939452463983e-12 0.234375014901161194
0.580357134342193604 -0.32421875 0.41015625
0.116071425378322601 0.08984375 0.58203125
0.383928567171096802 0.27734375 0.40625
0.705357134342193604 -0.0078125 0.37109375
0.366071432828903198 -0.4609375 0.390625029802322388
0.696428596973419189 -0.0078125 0.375000029802322388
0.00892857182770967484 0.015625 0.609375
0.508928596973419189 -0.328125 0.46875
0.616071403026580811 -0.31640625 0.37890625
0.0803571343421936035 -0.56640625 0.37890625
0.473214268684387207 0.27734375 0.3046875
0.0803571268916130066 0.0546875 0.59375
-0.160714268684387207 -0.58203125 0.36328125
-0.330357134342193604 -0.5546875 0.375000029802322388
0.383928567171096802 0.308593720197677612 0.33203125
0.571428596973419189 -0.32421875 0.437500059604644775
0.759151101112365723 -0.0114443628117442131 0.234316959977149963
0.580357134342193604 -0.3203125 0.41796875
0.375 -0.4765625 0.390625
0.508928596973419189 -0.328125 0.46875
0.1875 0.1484375 0.546875059604644775
0.294642895460128784 -0.492187470197677612 0.38671875
0.810912787914276123 0.0494295544922351837 0.127791136503219604
0.598214268684387207 -0.3203125 0.39453125
0.419642865657806396 -0.453125 0.39453125
0.223214268684387207 0.175781235098838806 0.52734375
0.178571447730064392 0.157552078366279602 0.531250059604644775
0.3125 -0.48046875 0.406250029802322388
0.607142865657806396 0.2265625 0.2578125
0.0446428582072257996 -0.5703125 0.3671875
0.5 -0.41015625 0.390625
0.769930541515350342 0.0821161419153213501 0.120905540883541107
0.339285701513290405 -0.484375 0.39453125
0.446428567171096802 -0.425781220197677612 0.394531279802322388
0.783481359481811523 0.0633413940668106079 0.0905123800039291382
0.75 -0.105266116559505463 0.287422776222229004
0.196428567171096802 0.140625 0.54296875
0.669642865657806396 0.118214711546897888 0.184055894613265991
0.758928537368774414 -0.0468750894069671631 0.2265625
0.321428567171096802 0.25 0.46484375
0.678571343421936035 -0.01953125 0.3984375
0.455357134342193604 -0.441406279802322388 0.3828125
0.741071403026580811 0.00390625 0.30859375
0.473214328289031982 0.2734375 0.36328125
0.670759618282318115 0.180271342396736145 0.235274896025657654
0.473214298486709595 -0.4296875 0.394531220197677612
0.517857134342193604 -0.328125 0.46875
0.741071403026580811 0.01171875 0.3046875
0.366071432828903198 -0.4765625 0.40234375
0.741071403026580811 -0.00390625 0.2265625
0.634286820888519287 0.187629416584968567 0.192223712801933289
0.482142865657806396 0.27734375 0.3046875
0.633928596973419189 -0.3046875 0.36328125
0.714285731315612793 6.07040459565943991e-13 0.36328125
0.0803571417927742004 0.0546875 0.59765625
0.0892857164144515991 0.0546875037252902985 0.59375
0.589285731315612793 -0.34765625 0.37109375
0.1875 0.16015625 0.5234375
0.535714268684387207 -0.33203125 0.44921875
0.785714268684387207 0.00731528457254171371 0.181476876139640808
0.25 -0.5234375 0.40625
0.0714285746216773987 -0.5625 0.38671875
0.151785716414451599 -0.54296875 0.37109375
0.580357134342193604 -0.3515625 0.3671875
0.741071403026580811 2.27401387650760789e-12 0.27734375
0.357142865657806396 -0.47265625 0.40625
0.357142865657806396 0.26171875 0.437499970197677612
0.732142865657806396 0.01171875 0.265625
0.553571403026580811 -0.32421875 0.44921875
0.241071432828903198 -0.515625 0.4140625
-0.3125 -0.55859375 0.37109375
0.5625 -0.367187470197677612 0.3828125
0.428571432828903198 0.30078125 0.312500029802322388
