ply
format ascii 1.0
element vertex 1022
comment vertices
property float x
property float y
property float z
end_header
0.383928567171096802 -0.15234375 0.34375
0.267857134342193604 -0.2734375 0.35546875
0.500682651996612549 0.0895832031965255737 0.285752624273300171
0.3125 0.417968720197677612 0.2109375
0.562500059604644775 0.233072921633720398 0.0481770820915699005
0.151785716414451599 0.43359375 0.36328125
0.0625 -0.38671875 0.328125
-0.607142865657806396 -0.40234375 0.390625
0.0714285746216773987 -0.359375 0.32421875
-0.125 -0.4375 0.34375
0.5 0.234374985098838806 -0.00390625
-0.0178571436554193497 -0.4140625 0.33984375
0.5 0.0813802182674407959 0.270182281732559204
-0.223214298486709595 -0.425781220197677612 0.41015625
-0.553571343421936035 -0.414062440395355225 0.40234375
0.285714328289031982 -0.28125 0.328125
0.348214268684387207 -0.203125 0.37109375
0.419642865657806396 -0.10546875 0.35546875
0.151785731315612793 0.47265625 0.29296875
0.0178571455180644989 -0.402343779802322388 0.33984375
0.348214298486709595 -0.203125014901161194 0.375
-0.294642865657806396 -0.4296875 0.38671875
0.258928567171096802 0.457031220197677612 0.308593720197677612
0.455357134342193604 -0.0078125 0.320312470197677612
0.169642835855484009 -0.347656279802322388 0.328125
-0.446428567171096802 -0.429687529802322388 0.41796875
0.521750986576080322 0.0820497050881385803 0.262210845947265625
0.357142865657806396 -0.1640625 0.3671875
0.339285671710968018 0.385416656732559204 0.184895843267440796
0.151785716414451599 0.4453125 0.3671875
0.526785731315612793 0.127604171633720398 0.209635421633720398
0.375 -0.140625014901161194 0.347656279802322388
-2.44293409286389096e-13 -0.402343720197677612 0.347656220197677612
0.553571403026580811 0.23046875 0.0624999925494194031
0.258928537368774414 0.460937470197677612 0.253906220197677612
0.0625 -0.375 0.324218779802322388
0.491071403026580811 -0.0187500026077032089 0.328906267881393433
0.375 -0.140625 0.378906279802322388
0.232142865657806396 -0.30078125 0.339843720197677612
0.535714268684387207 0.246093720197677612 0.01953125
0.428571462631225586 -0.0507812574505805969 0.34765625
-0.0625 -0.421875 0.33203125
0.410714298486709595 -0.11328125 0.34765625
0.00892857182770967484 -0.382812529802322388 0.33203125
-0.0178571436554193497 -0.4140625 0.33984375
0.535714209079742432 0.20703125 0.151041656732559204
-0.0357142873108386993 -0.41796875 0.33203125
0.196428582072257996 0.4453125 0.343750029802322388
-0.491071432828903198 -0.41796875 0.421875
0.0982142835855484009 -0.34765625 0.3359375
0.0982142835855484009 -0.355468720197677612 0.31640625
0.428571462631225586 -0.0507812425494194031 0.335937529802322388
0.0178571417927742004 0.511718690395355225 0.30859375
-0.169642850756645203 -0.421875 0.390625
-0.294642865657806396 -0.4375 0.3984375
0.232142850756645203 -0.3203125 0.31640625
0.0357142835855484009 -0.375 0.32421875
-0.0803571417927742004 -0.425781220197677612 0.328125
-0.348214298486709595 -0.44140625 0.40234375
0.151785716414451599 0.433593720197677612 0.363281220197677612
0.0267857145518064499 0.5 0.30859375
0.116071425378322601 -0.343750029802322388 0.3359375
0.214285716414451599 -0.304687529802322388 0.33203125
0.410714298486709595 0.3125 0.1484375
0.517857015132904053 0.05859375 0.30078125
0.428571432828903198 -0.0546875 0.3515625
-0.607142865657806396 -0.40234375 0.390625
0.0357142873108386993 -0.3828125 0.347656279802322388
0.044642861932516098 -0.37109375 0.339843779802322388
0.580357193946838379 0.219726547598838806 0.117187492549419403
0.491071403026580811 0.28515625 0.08984375
0.339285701513290405 -0.203124985098838806 0.390625
-0.375 -0.44140625 0.41015625
0.0357142873108386993 -0.37109375 0.33203125
0.508928537368774414 0.171875 0.184895828366279602
0.535714268684387207 0.146879300475120544 0.204964965581893921
0.375000029802322388 -0.156249985098838806 0.378906220197677612
0.428571432828903198 -0.1015625 0.3515625
0.482142865657806396 0.01953125 0.3203125
-0.3125 -0.4375 0.38671875
-0.187499985098838806 -0.417968720197677612 0.40625
0.125 0.48828125 0.2734375
-0.642857134342193604 -0.304687529802322388 0.3671875
0.526785731315612793 0.140624985098838806 0.191406279802322388
0.392857134342193604 -0.12109375 0.34375
0.160714283585548401 0.48828125 0.30078125
0.169642850756645203 0.433593720197677612 0.35546875
-0.00892857182770967484 -0.4140625 0.332031279802322388
-0.178571417927742004 -0.421875 0.4140625
0.241071432828903198 -0.296875 0.31640625
-0.633928596973419189 -0.375 0.382812470197677612
0.142857134342193604 0.4765625 0.284179657697677612
0.241071432828903198 -0.28515625 0.328125
0.0982142835855484009 0.44921875 0.363281279802322388
-0.214285716414451599 -0.42578125 0.410156220197677612
0.232142850756645203 -0.30078125 0.33984375
0.321428567171096802 -0.203125 0.3203125
0.133928567171096802 0.4375 0.36328125
-0.107142850756645203 -0.421875 0.33984375
0.330357134342193604 -0.1953125 0.37109375
0.526785731315612793 0.195312485098838806 0.16015625
0.169642850756645203 0.4453125 0.359375
0.0982142835855484009 0.457031220197677612 0.3671875
0.223214283585548401 -0.328125029802322388 0.328125
0.196428582072257996 -0.3203125 0.30859375
0.5 0.25 -0.03515625
0.428571432828903198 -0.0546875 0.3515625
0.303571432828903198 0.417968690395355225 0.25
0.491071403026580811 0.0437499992549419403 0.290625005960464478
0.374999970197677612 -0.15625 0.3359375
-0.633928656578063965 -0.289062529802322388 0.3671875
0.232142865657806396 0.468749970197677612 0.26953125
0.0803571417927742004 0.503906369209289551 0.27734375
-0.633928596973419189 -0.27734375 0.3671875
0.508928596973419189 0.0415958240628242493 0.308814942836761475
0.5 0.152343764901161194 0.213867172598838806
0.214285731315612793 -0.304687529802322388 0.31640625
-0.383754581212997437 -0.433550536632537842 0.402357578277587891
0.535714268684387207 0.17578125 0.144531235098838806
0.1071428582072258 0.48828125 0.2734375
0.366071462631225586 -0.18359375 0.328125
-0.330357164144515991 -0.43359375 0.3984375
-0.464285731315612793 -0.4296875 0.4296875
-0.553571403026580811 -0.414062529802322388 0.41796875
-0.642857134342193604 -0.296875029802322388 0.371093720197677612
-0.142857149243354797 -0.429687529802322388 0.35546875
0.25 -0.3046875 0.34375
-0.1071428582072258 -0.417968809604644775 0.328125
0.0267857145518064499 -0.3984375 0.33984375
0.258928567171096802 -0.30078125 0.3203125
0.437500059604644775 0.320312529802322388 0.114843741059303284
0.133928567171096802 0.480468779802322388 0.289062470197677612
0.330357134342193604 -0.1953125 0.3125
0.303571432828903198 -0.26953125 0.359375
0.383928567171096802 -0.1328125 0.37109375
0.303571432828903198 -0.25 0.375
0.5625 0.2421875 0.08203125
-0.258928567171096802 -0.43359375 0.39453125
-0.25 -0.4296875 0.3984375
0.0535714291036128998 0.5 0.28515625
-0.607142865657806396 -0.390625 0.390625
0.294642865657806396 -0.23828125 0.3515625
-0.125 -0.4296875 0.35546875
-0.00892857182770967484 -0.4140625 0.33203125
0.160714283585548401 0.4453125 0.359375
0.357142865657806396 -0.1796875 0.32421875
0.526785790920257568 0.14453125 0.1875
0.508952796459197998 0.0312520712614059448 0.302082419395446777
-0.339285701513290405 -0.4453125 0.39453125
0.0892857015132904053 0.4921875 0.28515625
-0.0357142873108386993 -0.41015625 0.33203125
-0.0357142873108386993 -0.402343720197677612 0.3359375
0.491071462631225586 0.0247395839542150497 0.322916656732559204
-9.01687231824599422e-12 0.49609375 0.3125
0.508928656578063965 0.110351555049419403 0.22265625
0.223214268684387207 -0.3125 0.3125
-0.419642865657806396 -0.429687529802322388 0.41796875
0.455994635820388794 -0.0232453625649213791 0.343930184841156006
0.223214283585548401 0.453125 0.3359375
0.1071428582072258 0.484375 0.2890625
0.473214268684387207 0.28515625 0.0937499850988388062
-0.633928537368774414 -0.277343720197677612 0.3671875
0.276785701513290405 -0.26171875 0.35546875
0.446428567171096802 0.312499970197677612 0.0976562425494194031
0.160714298486709595 0.4375 0.35546875
0.125 0.488281279802322388 0.29296875
-0.214285716414451599 -0.42578125 0.41015625
0.142857134342193604 0.476562470197677612 0.277343779802322388
-0.187499985098838806 -0.414062470197677612 0.41015625
-0.0714285746216773987 -0.42578125 0.33203125
-0.258928567171096802 -0.43359375 0.39453125
0.5625 0.239257842302322388 0.0742187649011611938
0.0446428582072257996 0.4921875 0.2890625
0.321428567171096802 -0.20703125 0.31640625
0.544642925262451172 0.20703125 0.149739578366279602
0.303571462631225586 -0.25 0.375000029802322388
0.401785671710968018 -0.1171875 0.37109375
-0.0357142873108386993 -0.40234375 0.335937529802322388
0.482142835855484009 0.0244140625 0.3125
-1.42701876790912729e-12 -0.40625 0.3359375
0.508928596973419189 0.0234374981373548508 0.299479126930236816
-0.428571432828903198 -0.42578125 0.41796875
0.535714328289031982 0.157552093267440796 0.195312514901161194
-0.330357134342193604 -0.44140625 0.390625
0.553571343421936035 0.18359375 0.13671875
0.142857149243354797 0.48828125 0.28515625
-0.125 -0.429687529802322388 0.35546875
-0.526785731315612793 -0.421875 0.421875
0.169642865657806396 -0.323437511920928955 0.3203125
0.0355953723192214966 -0.373968631029129028 0.344505816698074341
-0.642857134342193604 -0.2890625 0.3671875
-0.366071403026580811 -0.4375 0.39453125
-0.366071432828903198 -0.43359375 0.40234375
-0.455357134342193604 -0.4375 0.421874970197677612
0.276785701513290405 -0.2578125 0.347656220197677612
0.0625 -0.375 0.324218779802322388
0.241071417927742004 0.464843779802322388 0.328125
0.339285731315612793 0.417968720197677612 0.23046875
0.0803571417927742004 0.5 0.296875
-0.169642850756645203 -0.421875 0.3828125
-0.526785731315612793 -0.421875 0.421875
-0.625 -0.38671875 0.3828125
0.437500029802322388 -0.0625 0.35546875
0.321428567171096802 -0.23046875 0.38671875
-0.125 -0.433593779802322388 0.3515625
0.517857134342193604 0.183103933930397034 0.155009374022483826
-0.446428567171096802 -0.4375 0.42578125
0.526785790920257568 0.121061630547046661 0.253869235515594482
0.562499940395355225 0.261718720197677612 0.0546874962747097015
0.25 0.453125 0.2890625
-0.0892857164144515991 -0.4140625 0.33203125
-0.455357134342193604 -0.4296875 0.4296875
0.214285716414451599 -0.30859375 0.3359375
-0.178571417927742004 -0.417968720197677612 0.402343809604644775
0.107142843306064606 0.453125 0.3671875
0.0982142835855484009 0.492187529802322388 0.26953125
0.312500029802322388 -0.2109375 0.32421875
-0.160714283585548401 -0.421875029802322388 0.3984375
-0.348214298486709595 -0.4453125 0.3984375
0.0535714291036128998 0.5078125 0.296875
0.339285701513290405 -0.1953125 0.3203125
0.526785731315612793 0.24609375 0.0117187509313225746
-0.526785731315612793 -0.421875029802322388 0.421875
0.0625 -0.36328125 0.328125
0.0714285746216773987 0.50390625 0.28125
0.0625 0.50390625 0.296875
0.0178571436554193497 0.5078125 0.31640625
-0.0714285746216773987 -0.421875 0.32421875
0.169642850756645203 0.43359375 0.35546875
-0.312500029802322388 -0.429687529802322388 0.390625
0.125 0.453125 0.3671875
-0.625 -0.39453125 0.39453125
0.1071428582072258 0.484374970197677612 0.2890625
-0.0178571417927742004 -0.414062470197677612 0.339843720197677612
0.258928567171096802 -0.2734375 0.34375
0.571428596973419189 0.217447906732559204 0.125
-0.0178571436554193497 -0.40234375 0.34375
-0.571428656578063965 -0.410156279802322388 0.40625
0.125 -0.33984375 0.33203125
0.3125 -0.203125 0.31640625
0.151785731315612793 -0.33203125 0.33203125
-0.428571432828903198 -0.421875 0.417968779802322388
0.517857193946838379 0.23046875 0.0078125
0.328869014978408813 0.393880218267440796 0.22265625
-0.642857134342193604 -0.324218809604644775 0.37890625
-0.0714285597205162048 -0.4296875 0.328125
-0.455357164144515991 -0.421875 0.4296875
0.5 0.296223968267440796 0.0748697966337203979
0.491071432828903198 -0.0244140643626451492 0.328125
-0.0714285746216773987 -0.4140625 0.33203125
-0.16964276134967804 -0.41796875 0.390625
-0.0535714328289031982 -0.41015625 0.328125
0.169642850756645203 0.484375 0.27734375
-0.089285723865032196 -0.4140625 0.33203125
0.0892857164144515991 0.4921875 0.281250029802322388
-0.34821435809135437 -0.4375 0.390625
0.0357142873108386993 -0.37890625 0.32421875
0.0714285746216773987 0.51171875 0.281250029802322388
-0.464285671710968018 -0.421875 0.429687440395355225
-0.464285701513290405 -0.4296875 0.4296875
0.258928596973419189 0.460937470197677612 0.30078125
0.491071432828903198 0.01171875 0.328125
0.267857134342193604 -0.26953125 0.332031220197677612
0.544642865657806396 0.23046875 3.931033287513791e-13
-0.3125 -0.4296875 0.38671875
0.276785701513290405 0.46875 0.27734375
0.366071432828903198 -0.1640625 0.328125
-0.0535714291036128998 -0.41796875 0.328125
0.232142850756645203 -0.304687470197677612 0.3125
0.520833313465118408 0.1484375 0.227864578366279602
-0.187499985098838806 -0.414062559604644775 0.41015625
0.00892857089638710022 0.4921875 0.3125
-0.348214298486709595 -0.4453125 0.3984375
0.482142865657806396 -0.0234375037252902985 0.3125
0.205357149243354797 0.484375 0.28125
0.241071432828903198 -0.285156279802322388 0.328125
0.196428552269935608 -0.312500029802322388 0.324218720197677612
0.0982142835855484009 0.484375 0.27734375
0.223214283585548401 0.44140625 0.328125
0.107142865657806396 -0.367187440395355225 0.334635406732559204
-0.116071425378322601 -0.42578125 0.34765625
0.348214298486709595 -0.152343764901161194 0.37890625
0.517857134342193604 0.0459374412894248962 0.288018852472305298
0.5 0.24609375 -0.00390625
0.285714298486709595 -0.24609375 0.34765625
0.374999970197677612 0.328125 0.14453125
0.401785701513290405 0.30859375 0.1279296875
-0.0357142873108386993 -0.41015625 0.332031220197677612
0.580357193946838379 0.229166671633720398 0.102864570915699005
0.0714283585548400879 -0.368748873472213745 0.34375
-0.0535714291036128998 -0.421875 0.3359375
-0.0714285746216773987 -0.42578125 0.332031279802322388
0.357142895460128784 -0.171875 0.33203125
-0.0892857164144515991 -0.43359375 0.33984375
0.4375 0.289062529802322388 0.105468757450580597
0.285714328289031982 -0.252604186534881592 0.360677093267440796
0.401785701513290405 -0.10546875 0.36328125
0.241071432828903198 -0.28515625 0.3359375
0.1071428582072258 0.4921875 0.2734375
0.392857134342193604 -0.101562514901161194 0.3671875
0.0357143022119998932 -0.39453125 0.33984375
-0.517857134342193604 -0.421875 0.421875
0.428571432828903198 0.308593690395355225 0.1015625
0.517029464244842529 0.10348866879940033 0.274024665355682373
0.419642865657806396 -0.0703124925494194031 0.359374970197677612
0.151785731315612793 0.44140625 0.3671875
0.339285701513290405 -0.19140625 0.31640625
0.526785790920257568 0.154687508940696716 0.17343747615814209
-0.598214149475097656 -0.40234375 0.39453125
0.267857164144515991 -0.277343720197677612 0.328125
0.196428567171096802 -0.316406220197677612 0.3125
0.491071432828903198 0.0416666679084300995 0.31640625
-0.151785716414451599 -0.42578125 0.38671875
0.5 0.122656248509883881 0.246093764901161194
0.348214298486709595 -0.19140625 0.39453125
0.5625 0.2890625 0.07421875
-0.348214298486709595 -0.4375 0.390625
0.473214328289031982 -0.00651041697710752487 0.33984375
0.0178571436554193497 0.49609375 0.3046875
-0.455357134342193604 -0.4375 0.421875
-0.5625 -0.41015625 0.40234375
-0.0982142835855484009 -0.421875 0.324218809604644775
0.321428567171096802 -0.20703125 0.30859375
-0.178571447730064392 -0.421875 0.402343779802322388
-0.125 -0.43359375 0.35546875
0.294642865657806396 -0.2578125 0.3359375
0.241071432828903198 -0.29296875 0.33984375
-0.133928552269935608 -0.421875 0.36328125
0.169642850756645203 -0.34765625 0.32421875
0.276785701513290405 -0.2578125 0.359375
0.366071432828903198 -0.187499985098838806 0.3828125
-0.276785731315612793 -0.42578125 0.39453125
0.517857134342193604 0.0546966008841991425 0.29296875
-0.0178571436554193497 -0.40234375 0.34375
0.455357134342193604 -0.046875 0.3515625
0.0714285746216773987 0.51171875 0.28125
0.0982142835855484009 0.4921875 0.2734375
0.321428537368774414 -0.203124970197677612 0.31640625
0.214285716414451599 -0.312500029802322388 0.3359375
-0.196428552269935608 -0.414062470197677612 0.41796875
-0.232142835855484009 -0.4296875 0.40625
0.241071432828903198 0.449218779802322388 0.32421875
-0.633928596973419189 -0.29296875 0.3671875
0.34821435809135437 -0.1796875 0.37109375
0.392857104539871216 -0.0859375 0.3447265625
0.0803571417927742004 0.5078125 0.285156279802322388
-0.348214298486709595 -0.4375 0.390625
3.27985902326410894e-12 -0.40234375 0.34765625
-0.116071425378322601 -0.42578125 0.34375
-0.3125 -0.44140625 0.38671875
0.383928567171096802 -0.1328125 0.375
0.116071425378322601 -0.3515625 0.33984375
-0.330357134342193604 -0.4375 0.38671875
-0.455357134342193604 -0.4296875 0.4296875
0.267857134342193604 0.446614533662796021 0.253906309604644775
0.392857134342193604 0.339062511920928955 0.167968779802322388
0.401785701513290405 0.3154296875 0.114257805049419403
-0.00892857182770967484 -0.3984375 0.33203125
0.0982142910361289978 -0.34765625 0.33203125
0.303571432828903198 0.453125 0.253906279802322388
0.392857134342193604 0.308593690395355225 0.125976577401161194
0.357142865657806396 -0.1796875 0.33203125
-0.339285701513290405 -0.4453125 0.3984375
0.178571432828903198 0.484375 0.27734375
-0.0714285746216773987 -0.410156309604644775 0.332031220197677612
0.598214268684387207 0.238281235098838806 0.0546875
-0.535714268684387207 -0.4140625 0.41015625
0.392857134342193604 -0.1328125 0.37109375
-0.0714285746216773987 -0.417968779802322388 0.33984375
0.589285731315612793 0.235677093267440796 0.0475260354578495026
-0.205357149243354797 -0.41796875 0.421875
-0.1875 -0.41796875 0.406250029802322388
0.383928567171096802 -0.12890625 0.3671875
0.3125 -0.22265625 0.359374970197677612
-0.276785701513290405 -0.43359375 0.40625
0.169642850756645203 0.43359375 0.35546875
0.339285671710968018 -0.234374985098838806 0.37109375
0.526785790920257568 0.115460492670536041 0.241899251937866211
0.214285716414451599 0.44140625 0.34765625
0.553571343421936035 0.2421875 -0.01171875
0.526785731315612793 0.174479171633720398 0.196614578366279602
0.214285716414451599 0.4375 0.3359375
0.0267857145518064499 -0.390625 0.328125
-0.125 -0.4296875 0.3359375
-0.187470883131027222 -0.417936116456985474 0.406247556209564209
2.54427620464958704e-12 0.496093690395355225 0.3125
-0.276785701513290405 -0.44140625 0.40234375
0.25 -0.28125 0.34765625
0.223214283585548401 0.4609375 0.32421875
-0.3125 -0.43359375 0.39453125
0.294642865657806396 -0.2734375 0.33984375
0.428571432828903198 -0.0546875037252902985 0.34375
-0.401785701513290405 -0.44140625 0.40625
0.517857134342193604 0.25390625 -0.00390625
0.303571432828903198 -0.2265625 0.37109375
0.312499970197677612 -0.20703125 0.375
0.169642820954322815 -0.32421875 0.33203125
0.419642865657806396 -0.0781250149011611938 0.33203125
0.526785731315612793 0.22265625 -0.01171875
-0.223214283585548401 -0.433593630790710449 0.4140625
0.3125 0.4296875 0.218750014901161194
0.0892857164144515991 0.49609375 0.2890625
-0.526785731315612793 -0.42578125 0.41015625
0.375 -0.1484375 0.33984375
0.0892857164144515991 0.48828125 0.28125
0.160714298486709595 -0.343750029802322388 0.3125
0.196428507566452026 -0.332031309604644775 0.332031220197677612
0.0982142835855484009 -0.3671875 0.33984375
0.223214298486709595 -0.30078125 0.31640625
-0.205357164144515991 -0.41796875 0.421874970197677612
0.303571432828903198 -0.269531279802322388 0.34375
0.428571373224258423 -0.09375 0.34765625
-0.607142806053161621 -0.40234375 0.3984375
-0.642857134342193604 -0.34765625 0.37109375
-0.133928567171096802 -0.41796875 0.35546875
0.0714285671710968018 -0.359375 0.328125
0.330357074737548828 -0.234375 0.3671875
0.392857134342193604 -0.12109375 0.343749970197677612
-0.651785731315612793 -0.3203125 0.367187529802322388
-0.1071428582072258 -0.421874970197677612 0.33984375
0.160714298486709595 -0.347656220197677612 0.3125
0.517857134342193604 0.2578125 -0.0117187509313225746
0.517857015132904053 0.2880859375 0.100585930049419403
0.125 0.441406220197677612 0.359375
0.357142865657806396 -0.1796875 0.390625
0.25 0.48046875 0.28125
0.0535714291036128998 -0.38671875 0.34375
0.5 0.2578125 -0.0217633936554193497
0.232142850756645203 -0.296875 0.31640625
-0.330357134342193604 -0.43359375 0.390625
0.142857149243354797 0.4453125 0.3671875
-0.357142865657806396 -0.4453125 0.394531220197677612
0.267857164144515991 -0.28515625 0.3203125
0.321428567171096802 -0.207031220197677612 0.30859375
0.535714387893676758 0.297526031732559204 0.0898437425494194031
0.151785716414451599 0.43359375 0.36328125
0.125 0.453125 0.36328125
0.285714298486709595 -0.265625 0.36328125
0.348214298486709595 -0.1875 0.39453125
-0.312500059604644775 -0.43359375 0.39453125
0.535714328289031982 0.27734375 0.05859375
0.366071432828903198 -0.16015625 0.33203125
0.446428567171096802 0.31640625 0.11328125
0.196428567171096802 0.4453125 0.35546875
-0.366071432828903198 -0.4375 0.39453125
6.61120420561434052e-12 -0.3984375 0.328125
-0.285714298486709595 -0.42578125 0.39453125
0.214285716414451599 0.4609375 0.28125
0.598214268684387207 0.234375 0.0507812425494194031
0.553571462631225586 0.230468764901161194 0.09375
0.0446428582072257996 -0.3671875 0.33203125
0.214285686612129211 0.484375 0.282225489616394043
-0.401785701513290405 -0.4296875 0.4140625
0.428571432828903198 0.292968779802322388 0.12890625
-0.330357193946838379 -0.442187517881393433 0.3984375
0.553571403026580811 0.225585922598838806 0.127929702401161194
0.1071428582072258 0.496093779802322388 0.2734375
0.133928537368774414 0.4375 0.36328125
-0.544642865657806396 -0.41015625 0.40625
-0.464285701513290405 -0.417968720197677612 0.42578125
-0.1071428582072258 -0.4296875 0.3359375
0.508928596973419189 0.3037109375 0.0947265625
-0.151785731315612793 -0.42578125 0.35546875
-0.294642925262451172 -0.4296875 0.3984375
-0.616071403026580811 -0.40234375 0.39453125
0.499166578054428101 0.101172991096973419 0.275976449251174927
0.544642865657806396 0.270913779735565186 0.0467283576726913452
0.098214276134967804 -0.34765625 0.33203125
-0.142857149243354797 -0.4140625 0.3671875
-0.339285731315612793 -0.43359375 0.390625
-9.22177915627098166e-13 -0.40625 0.33984375
-0.0982142835855484009 -0.42578125 0.33984375
0.151785701513290405 0.472656190395355225 0.28125
0.241071432828903198 -0.29296875 0.34765625
-0.526785790920257568 -0.421874970197677612 0.421875
-0.651785731315612793 -0.3203125 0.367187529802322388
0.544642925262451172 0.272786438465118408 0.067708335816860199
0.517857134342193604 0.23046875 0.0078125
0.267857104539871216 0.457031279802322388 0.291992217302322388
0.491071432828903198 0.05859375 0.300781220197677612
0.116071425378322601 0.48828125 0.2734375
-0.196428567171096802 -0.4296875 0.4140625
1.27050648647542008e-12 0.50390625 0.3203125
-0.526785731315612793 -0.41796875 0.41015625
0.267857134342193604 0.437500029802322388 0.26953125
0.1071428582072258 0.4921875 0.2734375
0.0357142873108386993 -0.390625 0.328125
0.535714387893676758 0.2255859375 -0.0078125
0.0714285746216773987 -0.37109375 0.3203125
0.232142806053161621 -0.316406369209289551 0.31640625
-0.633928596973419189 -0.38671875 0.38671875
0.169642850756645203 -0.332031220197677612 0.3359375
-0.303571432828903198 -0.4375 0.39453125
0.321428567171096802 -0.2109375 0.316406220197677612
0.098214276134967804 0.480468690395355225 0.28515625
-0.455357134342193604 -0.4296875 0.4296875
0.1875 0.484375 0.28515625
0.491071432828903198 0.000651041686069220304 0.296875
-0.517857134342193604 -0.41796875 0.41015625
0.0535714365541934967 -0.3671875 0.328125
0.0178571417927742004 0.5 0.3125
0.5 0.110937498509883881 0.241406247019767761
0.5625 0.1953125 0.153645828366279602
0.321428567171096802 0.421875029802322388 0.2421875
0.5 0.09765625 0.256510436534881592
0.330357134342193604 -0.19140625 0.37890625
0.241071417927742004 0.44921875 0.3203125
0.1071428582072258 0.453125059604644775 0.3671875
0.321428537368774414 0.430664032697677612 0.233398452401161194
0.572684228420257568 0.223174035549163818 0.0663181468844413757
0.508928656578063965 0.28125 0.092447914183139801
0.330357134342193604 -0.23828125 0.375
-0.482142895460128784 -0.433593720197677612 0.42578125
0.580357134342193604 0.238281235098838806 0.0390625037252902985
0.25 -0.30859375 0.3203125
0.580357134342193604 0.238281279802322388 0.0390625
0.491071462631225586 -0.0078125 0.30859375
0.330357134342193604 -0.1953125 0.3125
0.357142865657806396 -0.16796875 0.390625
0.482142806053161621 0.0164062511175870895 0.317187517881393433
0.383928596973419189 0.31640625 0.141927078366279602
0.00892857182770967484 0.496093779802322388 0.316406220197677612
0.375 -0.16796875 0.328125029802322388
0.5 0.25390625 -0.0299479179084300995
0.285714298486709595 0.429687470197677612 0.26171875
0.25 -0.3125 0.3203125
0.553571403026580811 0.230468764901161194 0.09765625
0.0892857164144515991 0.48828125 0.28125
0.357142865657806396 -0.17578125 0.37109375
0.339285701513290405 -0.1875 0.3203125
0.0357142873108386993 -0.375 0.32421875
-0.303571403026580811 -0.4375 0.38671875
-0.276785701513290405 -0.4375 0.40625
0.133928537368774414 0.49609375 0.281250029802322388
-0.491071403026580811 -0.42578125 0.4296875
0.169642850756645203 0.484375 0.28515625
-0.348214298486709595 -0.4375 0.40625
0.375000029802322388 -0.171875 0.33203125
-0.491071432828903198 -0.4296875 0.425781220197677612
-0.598214268684387207 -0.40234375 0.39453125
0.339285731315612793 0.39453125 0.22265625
0.321428596973419189 -0.21875 0.359375
0.1071428582072258 0.44921875 0.359375
-0.375000029802322388 -0.44140625 0.410156279802322388
0.3125 0.43359375 0.23046875
-0.642857134342193604 -0.277343779802322388 0.3671875
0.089285723865032196 0.453125 0.3671875
0.5 0.0677083134651184082 0.268229186534881592
0.142857149243354797 0.44921875 0.36328125
-0.651785731315612793 -0.3359375 0.375
0.25 0.453125 0.312500029802322388
0.535714209079742432 0.170572921633720398 0.191406235098838806
-0.205357179045677185 -0.42578125 0.421875
0.0714285746216773987 0.50390625 0.281249940395355225
0.267857134342193604 -0.2734375 0.35546875
0.1875 0.46875 0.296875
0.00892857182770967484 0.5 0.30078125
-0.607142925262451172 -0.40234375 0.3984375
0.5625 0.265624970197677612 0.0104166669771075249
-0.651785731315612793 -0.3203125 0.367187529802322388
0.455357134342193604 -0.046875 0.3515625
0.0892857164144515991 0.50390625 0.28515625
-0.0892857164144515991 -0.4140625 0.33203125
-0.357142865657806396 -0.43359375 0.40625
0.535714268684387207 0.261718779802322388 0.01171875
0.232142850756645203 -0.316406279802322388 0.33203125
0.0892857164144515991 -0.3515625 0.3359375
0.526785671710968018 0.214844107627868652 0.00390646699815988541
0.330357164144515991 -0.203125014901161194 0.31640625
0.276785701513290405 0.449218779802322388 0.285156220197677612
0.232142850756645203 -0.31640625 0.33203125
0.241071432828903198 0.457031220197677612 0.2734375
-0.0535714291036128998 -0.41796875 0.328125
0.366071432828903198 -0.167968794703483582 0.38671875
0.303571403026580811 0.4375 0.242187529802322388
0.374999940395355225 -0.144531235098838806 0.37890625
-0.651785731315612793 -0.3359375 0.375
0.374999970197677612 0.34375 0.183593735098838806
0.535714268684387207 0.195312514901161194 0.167968764901161194
-0.142857149243354797 -0.421874970197677612 0.34765625
0.544642865657806396 0.199218779802322388 0.114257782697677612
-0.0357142873108386993 -0.40234375 0.3359375
0.1071428582072258 0.453125 0.3671875
0.464285701513290405 -0.0625 0.3359375
-0.392857134342193604 -0.4453125 0.41015625
0.241071432828903198 -0.289062470197677612 0.33984375
0.348214268684387207 0.414062470197677612 0.21484375
0.0267857164144515991 -0.3984375 0.33984375
0.258928567171096802 0.4609375 0.3046875
-0.276785701513290405 -0.43359375 0.40625
0.0535714328289031982 -0.37890625 0.34765625
-0.232142850756645203 -0.4296875 0.406249970197677612
-0.303571432828903198 -0.4375 0.38671875
0.375 0.355468779802322388 0.19140625
0.321428567171096802 -0.19921875 0.375
0.357142865657806396 -0.14453125 0.37109375
0.0267857164144515991 0.49609375 0.296875
0.339285701513290405 -0.1953125 0.3203125
0.366071432828903198 0.390625029802322388 0.199218764901161194
0.00892857182770967484 0.49609375 0.30078125
0.116071425378322601 0.44921875 0.36328125
0.241071432828903198 -0.29296875 0.3203125
-0.633928596973419189 -0.335937470197677612 0.37109375
-0.214285716414451599 -0.42578125 0.41015625
0.339285701513290405 0.375 0.207031235098838806
-3.31452909823476416e-13 0.49609375 0.3125
0.3125 -0.2265625 0.37890625
0.553571403026580811 0.251302093267440796 0.0494791679084300995
0.125 -0.359375029802322388 0.320312440395355225
-0.633928477764129639 -0.390625 0.382812470197677612
0.285714298486709595 0.4453125 0.238281235098838806
0.098214276134967804 -0.3671875 0.320312440395355225
-0.1875 -0.421875 0.40234375
0.258928567171096802 -0.27734375 0.33203125
0.0714285746216773987 0.51171875 0.28125
-0.607142865657806396 -0.39453125 0.390625
0.116071432828903198 0.484375 0.2890625
0.455357104539871216 -0.0695312470197677612 0.342968732118606567
0.187499985098838806 -0.3203125 0.332031220197677612
-0.642857134342193604 -0.29296875 0.371093720197677612
0.383928567171096802 0.366680264472961426 0.174797683954238892
0.0714285746216773987 -0.3828125 0.3359375
-0.357142865657806396 -0.43359375 0.40625
0.241071447730064392 -0.28515625 0.3359375
0.133928582072257996 -0.33984375 0.32421875
0.375 0.361979156732559204 0.158854156732559204
0.535714209079742432 0.30078125 0.0625
0.0267857145518064499 -0.3984375 0.33984375
-0.0714285746216773987 -0.42578125 0.328125
0.0892857164144515991 0.5 0.2734375
0.321428567171096802 -0.19921875 0.375
0.1071428582072258 0.453125 0.3671875
-0.258928537368774414 -0.43359375 0.39453125
-0.553571403026580811 -0.4140625 0.41796875
-0.0714285746216773987 -0.41796875 0.339843779802322388
0.5625 0.20703125 0.144531235098838806
0.00892857275903224945 -0.394531279802322388 0.3515625
0.330357134342193604 -0.203124985098838806 0.32421875
0.0625 0.5078125 0.29296875
0.401785701513290405 -0.10546875 0.36328125
0.303571403026580811 0.419270843267440796 0.23046875
0.553571343421936035 0.175000011920928955 0.167187497019767761
-6.13622867795537985e-12 -0.398437529802322388 0.328125
-0.1875 -0.4296875 0.41015625
0.0714285746216773987 0.5 0.27734375
-0.142857179045677185 -0.43359375 0.355468809604644775
0.214285731315612793 0.453125 0.33984375
0.375 -0.15625 0.36328125
-0.00892857089638710022 0.503906309604644775 0.3125
-0.392857134342193604 -0.4453125 0.4140625
0.0714285820722579956 -0.36328125 0.3203125
0.339285701513290405 -0.18359375 0.37109375
0.142857149243354797 0.44921875 0.3671875
-0.0357142873108386993 -0.406249970197677612 0.33984375
-0.294642865657806396 -0.4296875 0.3984375
0.383928596973419189 -0.15234375 0.34375
0.1875 0.46875 0.28515625
0.0803571417927742004 0.51171875 0.28125
0.464285671710968018 -0.0559895820915699005 0.3359375
0.589285671710968018 0.233593747019767761 0.0734374970197677612
-0.526966989040374756 -0.426235616207122803 0.409869730472564697
-0.00892857182770967484 -0.4140625 0.33203125
0.419642895460128784 -0.109374992549419403 0.350260406732559204
0.419642865657806396 -0.1015625 0.33984375
-0.642857134342193604 -0.359375 0.375
-0.267857134342193604 -0.43359375 0.39453125
-0.1071428582072258 -0.4296875 0.3359375
0.124999985098838806 0.44140625 0.359375
0.375000029802322388 0.365885436534881592 0.194010406732559204
0.366071432828903198 0.379882782697677612 0.210937485098838806
0.375 0.371093720197677612 0.199218735098838806
0.0892857089638710022 0.49609375 0.28125
0.321428567171096802 -0.203125 0.31640625
0.223214283585548401 -0.320312470197677612 0.3359375
-0.214285701513290405 -0.41796875 0.4140625
0.00892857275903224945 0.5078125 0.3046875
0.571428596973419189 0.235026046633720398 0.0999289676547050476
-0.651785731315612793 -0.339843779802322388 0.37890625
0.0625 0.50390625 0.296875
0.491071432828903198 -0.0273437537252902985 0.3203125
0.491071432828903198 0.28515625 0.08984375
0.303571462631225586 -0.25390625 0.34375
-0.1071428582072258 -0.41796875 0.328125
0.276785671710968018 -0.2734375 0.328125
0.258928567171096802 0.46581915020942688 0.263673275709152222
0.330357134342193604 0.380208343267440796 0.20703125
0.0178571436554193497 0.50390625 0.296875029802322388
0.0535714291036128998 -0.390625 0.328125
-0.5 -0.421875 0.42578125
0.294642865657806396 -0.23828125 0.35546875
-0.116071425378322601 -0.42578125 0.34375
0.178571447730064392 -0.335937529802322388 0.3359375
0.517857193946838379 0.185546860098838806 0.180664077401161194
-0.0982142835855484009 -0.43359375 0.33203125
-0.348214298486709595 -0.4453125 0.3984375
0.5 0.0664062574505805969 0.304687440395355225
0.589285731315612793 0.223958328366279602 0.075520835816860199
-0.312499970197677612 -0.44140625 0.38671875
-0.491071432828903198 -0.4296875 0.42578125
0.3125 -0.24609375 0.37890625
-0.642857074737548828 -0.296875029802322388 0.37109375
0.160714298486709595 -0.34375 0.3359375
0.535714149475097656 0.1689453125 0.151367202401161194
0.178571462631225586 -0.3359375 0.312499970197677612
0.214285701513290405 0.453124970197677612 0.332031279802322388
-0.571428596973419189 -0.41015625 0.40625
-0.0357142835855484009 -0.40234375 0.3359375
-0.437499970197677612 -0.4375 0.41796875
0.0625 -0.38671875 0.328125
0.0714285746216773987 0.4921875 0.2890625
0.392857104539871216 -0.125 0.34375
0.0892857164144515991 0.453125 0.36328125
-0.214285716414451599 -0.41796875 0.4140625
0.410714298486709595 -0.0703125 0.35546875
0.348214298486709595 -0.19140625 0.37109375
0.0267857145518064499 0.49609375 0.296875
-0.0446428582072257996 -0.4140625 0.343749970197677612
0.330357134342193604 -0.1953125 0.371093720197677612
0.375 0.320312470197677612 0.1484375
-0.633928596973419189 -0.296875029802322388 0.375
0.508928596973419189 0.171875014901161194 0.192708328366279602
0.517857134342193604 0.218749985098838806 0.0078125
-0.0267857145518064499 -0.40625 0.328125
0.366071403026580811 0.39453125 0.2109375
-0.375 -0.44140625 0.3984375
-0.0892857164144515991 -0.43359375 0.33984375
0.303571492433547974 0.428385406732559204 0.2578125
0.357142865657806396 -0.1640625 0.3671875
-0.330357134342193604 -0.433593720197677612 0.38671875
0.544642865657806396 0.288281232118606567 0.0500000044703483582
0.276785701513290405 -0.2578125 0.35546875
-0.0714285746216773987 -0.414062410593032837 0.328125
0.526785731315612793 0.25390625 0.01171875
0.0892857164144515991 -0.3515625 0.3359375
0.0446428582072257996 -0.3671875 0.33203125
0.116071417927742004 0.44921875 0.36328125
0.321428567171096802 0.3984375 0.201822921633720398
-0.0535714291036128998 -0.421875 0.33203125
0.455357164144515991 -0.0677083283662796021 0.3359375
0.0357142873108386993 0.4921875 0.296875
-0.526785731315612793 -0.41796875 0.4140625
0.285714328289031982 -0.28125 0.3359375
0.00892857182770967484 0.5 0.30078125
-0.473214328289031982 -0.43359375 0.4296875
-0.651785671710968018 -0.316406279802322388 0.375
0.321428567171096802 -0.203125 0.390625
-0.633928596973419189 -0.328125 0.375000029802322388
0.0625 0.5078125 0.292968809604644775
0.0892857164144515991 -0.35546875 0.3203125
0.517857134342193604 0.234375 -0.0195312481373548508
-0.151785716414451599 -0.4140625 0.3671875
-0.616071403026580811 -0.390625 0.3984375
0.464285671710968018 1.80822301576455402e-10 0.320312529802322388
-0.491071432828903198 -0.41796875 0.421875
0.366071462631225586 -0.160156264901161194 0.385416686534881592
0.125 -0.33984375 0.332031190395355225
0.383928626775741577 -0.1484375 0.35546875
0.491071432828903198 0.296875 0.0859375
0.4375 -0.08203125 0.355468720197677612
0.258928567171096802 -0.2734375 0.34765625
0.241071432828903198 0.468750029802322388 0.307340234518051147
0.357142865657806396 -0.18359375 0.390625029802322388
0.133928567171096802 0.4921875 0.285156190395355225
0.276785701513290405 -0.2734375 0.328125
-0.392857104539871216 -0.4453125 0.410156279802322388
0.401785701513290405 -0.125 0.35546875
0.437499970197677612 -0.06640625 0.35546875
0.526785671710968018 0.299479186534881592 0.06640625
0.571428537368774414 0.20703125 0.105468742549419403
-0.508928656578063965 -0.42578125 0.410156279802322388
-0.633928596973419189 -0.30078125 0.3671875
0.125 0.44140625 0.359375029802322388
0.3125 0.402994781732559204 0.211588531732559204
0.0625 -0.3671875 0.33984375
-0.642857134342193604 -0.3359375 0.37890625
0.0982142835855484009 0.48046875 0.28125
0.223214283585548401 -0.3203125 0.3359375
0.499999940395355225 0.078125 0.253906220197677612
0.178571432828903198 0.48046875 0.29296875
0.5625 0.186197906732559204 0.151692703366279602
0.116071425378322601 0.49609375 0.29296875
0.276785701513290405 -0.277343779802322388 0.359375
0.392857134342193604 -0.0898437425494194031 0.34375
0.357142865657806396 -0.184375002980232239 0.375
0.553571343421936035 0.180338531732559204 0.159505203366279602
0.0714285746216773987 0.50390625 0.27734375
0.205357149243354797 0.4453125 0.3515625
0.0535714253783226013 -0.390625 0.33203125
0.3125 -0.22265625 0.359375
-0.0267857145518064499 -0.406249970197677612 0.328125
0.0714285746216773987 0.51171875 0.28125
0.330357134342193604 -0.1953125 0.31640625
0.366071432828903198 -0.16015625 0.33984375
-0.223214283585548401 -0.43359375 0.41796875
0.544495344161987305 0.28125 0.0390625
0.0535714291036128998 -0.375 0.34765625
0.339285701513290405 -0.183593720197677612 0.371093779802322388
0.482142865657806396 0.039713539183139801 0.299479156732559204
0.223214283585548401 -0.3203125 0.3359375
-0.258928537368774414 -0.4296875 0.402343720197677612
0.544642925262451172 0.307617217302322388 0.0722656175494194031
-0.276785671710968018 -0.437499970197677612 0.40234375
0.375 0.34375 0.14453125
0.303571432828903198 0.42578125 0.234375
0.151785731315612793 0.48828125 0.27734375
0.535714268684387207 0.179687485098838806 0.187499970197677612
0.3125 -0.2109375 0.32421875
0.294642865657806396 -0.246093735098838806 0.34765625
0.0357142873108386993 -0.37890625 0.34765625
0.473214268684387207 -0.0437499955296516418 0.331250011920928955
0.482142865657806396 0.292968720197677612 0.0859374925494194031
0.0267857145518064499 -0.3828125 0.324218720197677612
0.544642865657806396 0.23046875 0.0078125
0.116071425378322601 -0.3515625 0.33984375
0.107142865657806396 -0.352864563465118408 0.320312470197677612
-0.0178571436554193497 -0.4140625 0.33984375
0.517857134342193604 0.0898147150874137878 0.242936953902244568
3.24120569793195923e-12 -0.38671875 0.34765625
-0.651785850524902344 -0.343749940395355225 0.375
0.0714285746216773987 0.5 0.277343720197677612
0.535714328289031982 0.147226244211196899 0.188964873552322388
0.214285731315612793 -0.30078125 0.32421875
0.5625 0.238281235098838806 0.1015625
0.0357142873108386993 0.50390625 0.2890625
-0.535714268684387207 -0.41796875 0.41015625
-0.625 -0.394531220197677612 0.39453125
0.366071432828903198 -0.14453125 0.359375
-0.25 -0.43359375 0.4140625
-0.187499970197677612 -0.421875 0.417968720197677612
0.160714283585548401 -0.3359375 0.3359375
-0.642857134342193604 -0.34765625 0.37109375
0.241071432828903198 0.466145843267440796 0.286458313465118408
-0.0446428582072257996 -0.41015625 0.34375
0.339285701513290405 -0.203125 0.37109375
-0.223214283585548401 -0.43359375 0.421875
0.517857134342193604 0.109375 0.2265625
0.0803571343421936035 0.50390625 0.2890625
-0.133928626775741577 -0.4296875 0.359375
0.196428567171096802 0.453125 0.35546875
0.125 0.496093928813934326 0.27734375
0.553571403026580811 0.235351547598838806 0.0654296875
0.0178571436554193497 -0.398437529802322388 0.34375
-0.303571462631225586 -0.433593720197677612 0.390625
-0.464285701513290405 -0.4140625 0.4296875
0.455357104539871216 0.2890625 0.118489585816860199
0.562499940395355225 0.242187514901161194 0.0859375
0.330357134342193604 -0.2265625 0.359375
0.241071432828903198 0.45703125 0.265624970197677612
0.366071403026580811 0.37890625 0.174479156732559204
0.044642861932516098 -0.3671875 0.33203125
0.214285716414451599 0.460937559604644775 0.28125
0.214285731315612793 0.4375 0.34375
0.544642865657806396 0.23046875 0.0078125
0.366071432828903198 0.363281220197677612 0.16015625
-0.633928537368774414 -0.37109375 0.3828125
0.339285701513290405 -0.164062514901161194 0.375
0.276785701513290405 -0.249999970197677612 0.3515625
0.5 0.118489585816860199 0.236979156732559204
0.517857134342193604 0.175781235098838806 0.160156235098838806
0.232142850756645203 0.46484375 0.28125
0.491071432828903198 0.0664062425494194031 0.28125
0.232142850756645203 -0.3046875 0.33984375
0.321428596973419189 -0.23828125 0.37890625
0.223214283585548401 -0.30859375 0.34375
0.267857134342193604 0.44140625 0.269531220197677612
0.383928567171096802 -0.10546875 0.34765625
0.473214298486709595 0.296874970197677612 0.0820312574505805969
0.0982142984867095947 -0.374999970197677612 0.335937470197677612
0.044642861932516098 -0.381510436534881592 0.34765625
0.437499970197677612 0.31640625 0.131510496139526367
0.0803571343421936035 0.50390625 0.289062440395355225
0.0714285597205162048 -0.3828125 0.3359375
0.517857193946838379 0.308593720197677612 0.0898437425494194031
0.392857164144515991 0.329427093267440796 0.126302093267440796
0.580357134342193604 0.2578125 0.015625
0.0535714291036128998 0.5 0.28515625
-0.624999940395355225 -0.394531220197677612 0.39453125
0.544642865657806396 0.2421875 -0.015625
-0.473214298486709595 -0.4296875 0.421875
-0.0625 -0.4140625 0.328125
0.00892857182770967484 0.5078125 0.31640625
0.241071432828903198 0.453125 0.29296875
0.544642865657806396 0.234375 -0.015625
-0.116071425378322601 -0.42578125 0.34765625
0.0357142873108386993 -0.3828125 0.32421875
-0.633928596973419189 -0.277343690395355225 0.3671875
0.098214268684387207 -0.36328125 0.31640625
0.491071462631225586 -0.0078125 0.31640625
0.5 0.0827785208821296692 0.265090733766555786
0.214285701513290405 0.46484375 0.296875
-0.294642865657806396 -0.4296875 0.3984375
0.339285701513290405 -0.22265625 0.37109375
0.303571403026580811 -0.261718720197677612 0.33984375
-0.642857134342193604 -0.359375 0.37890625
0.446428567171096802 -0.0390624925494194031 0.3203125
0.5 0.136718764901161194 0.20703125
0.0357142873108386993 0.50390625 0.2890625
0.250000029802322388 0.453125029802322388 0.31640625
-0.241071447730064392 -0.436197936534881592 0.403645843267440796
-0.607142865657806396 -0.3984375 0.3984375
0.303571432828903198 -0.265625 0.36328125
0.1875 -0.33203125 0.30859375
0.303571432828903198 -0.239583328366279602 0.375
0.562499940395355225 0.2421875 0.03125
-0.0714285746216773987 -0.421875 0.32421875
-0.553571403026580811 -0.4140625 0.40234375
0.258928567171096802 0.46875 0.3046875
0.517857015132904053 0.246093735098838806 4.14891103243941739e-13
-0.571428596973419189 -0.4140625 0.410156309604644775
0.348214298486709595 -0.1640625 0.38671875
-0.0982142835855484009 -0.425781220197677612 0.33984375
-0.330357134342193604 -0.43359375 0.390625
0.366071432828903198 -0.171875 0.390625
-0.642857134342193604 -0.28125 0.37109375
0.294642865657806396 -0.25390625 0.33984375
0.375 0.3759765625 0.2021484375
0.348214298486709595 -0.19140625 0.39453125
-0.258928537368774414 -0.4375 0.3984375
0.508928656578063965 0.289062470197677612 0.100911453366279602
-0.25 -0.429687470197677612 0.4140625
-0.294642865657806396 -0.4375 0.3984375
0.241071417927742004 0.46938052773475647 0.301260769367218018
0.526785671710968018 0.282552063465118408 0.0664062574505805969
0.0357142873108386993 -0.37109375 0.33203125
-0.383928567171096802 -0.43359375 0.410230785608291626
-0.133928567171096802 -0.421875 0.3671875
0.294642865657806396 -0.2734375 0.35546875
-0.491071432828903198 -0.42578125 0.421875
0.267857134342193604 0.4609375 0.25390625
0.0892857164144515991 0.453125 0.36328125
0.232142865657806396 0.453125029802322388 0.33203125
0.535714268684387207 0.18359375 0.1875
-0.205357149243354797 -0.42578125 0.421874940395355225
0.25 -0.3125 0.33203125
0.571428656578063965 0.288085907697677612 0.04931640625
0.0625 0.50390625 0.296875
0.5625 0.238281235098838806 0.02734375
0.258928537368774414 -0.27734375 0.33203125
-0.357142865657806396 -0.43359375 0.40625
-0.294642865657806396 -0.441406279802322388 0.39453125
0.276785701513290405 -0.2578125 0.34765625
-0.544642865657806396 -0.421875029802322388 0.40625
-0.0892857089638710022 -0.4140625 0.33203125
0.125 0.453125 0.3671875
0.553571462631225586 0.27734375 0.0742187425494194031
0.133928582072257996 0.4921875 0.285156309604644775
0.232142850756645203 -0.30078125 0.33984375
0.0982142835855484009 0.48828125 0.29296875
0.348214298486709595 -0.203125 0.37109375
0.116071425378322601 0.48828125 0.2734375
0.267857134342193604 -0.2734375 0.328125
-0.0803571417927742004 -0.4296875 0.3359375
-0.0982142835855484009 -0.43359375 0.33203125
0.571428656578063965 0.199218764901161194 0.117968745529651642
0.517857074737548828 0.234375 -0.01953125
0.330357134342193604 -0.203125 0.31640625
0.330357134342193604 -0.24609375 0.359375
0.589285671710968018 0.242179811000823975 0.0478275157511234283
0.482142865657806396 0.2578125 -0.03515625
0.223214283585548401 -0.3203125 0.3359375
-0.160714268684387207 -0.4140625 0.402370929718017578
0.169642850756645203 0.484375 0.28515625
0.366071432828903198 -0.128906235098838806 0.3671875
-0.651785731315612793 -0.34765625 0.37890625
0.267857164144515991 -0.30078125 0.32421875
-0.294642865657806396 -0.44140625 0.39453125
-0.651785731315612793 -0.339843779802322388 0.375
-0.401785671710968018 -0.43359375 0.40625
-0.410714298486709595 -0.44140625 0.4140625
0.401785701513290405 0.329101592302322388 0.156250014901161194
0.357142865657806396 -0.171875 0.33203125
0.0446428582072257996 0.49609375 0.3046875
0.464285731315612793 -0.0546875 0.3427734375
0.178571432828903198 0.46484375 0.28125
-0.294642865657806396 -0.43359375 0.38671875
0.526785731315612793 0.110618390142917633 0.264289975166320801
0.544642865657806396 0.208333328366279602 0.113932289183139801
0.366071432828903198 0.339843809604644775 0.179687514901161194
0.303571432828903198 0.444010436534881592 0.257812470197677612
-0.160714328289031982 -0.42578125 0.3984375
0.580357074737548828 0.214062511920928955 0.0984375029802322388
0.410714298486709595 -0.0664062350988388062 0.343749970197677612
0.169642850756645203 0.4375 0.359375
0.482142895460128784 -0.0126953115686774254 0.336914032697677612
-0.357142865657806396 -0.43359375 0.40625
0.303571432828903198 -0.257812529802322388 0.339843779802322388
-0.410714298486709595 -0.44140625 0.4140625
-0.642857193946838379 -0.27734375 0.3671875
0.160714283585548401 -0.328125 0.328125
0.526785731315612793 0.0799549594521522522 0.276975691318511963
0.532738089561462402 0.278645813465118408 0.0833333283662796021
0.232142865657806396 -0.316406309604644775 0.33203125
-0.116071425378322601 -0.41796875 0.33984375
0.125 0.44140625 0.359375
0.196428567171096802 0.4765625 0.29296875
-0.508928656578063965 -0.4296875 0.414062410593032837
0.294642865657806396 -0.265624970197677612 0.3359375
0.330357104539871216 -0.1875 0.3828125
0.0178571436554193497 0.49609375 0.304687410593032837
0.160714283585548401 0.4453125 0.359374970197677612
0.464285701513290405 0.307291686534881592 0.109375007450580597
0.446428537368774414 0.309895813465118408 0.127604171633720398
0.435267835855484009 0.289062529802322388 0.117187507450580597
-0.0446428582072257996 -0.41015625 0.34375
-0.473214328289031982 -0.41796875 0.42578125
-0.571428656578063965 -0.41015625 0.40625
-0.258928537368774414 -0.4375 0.398437529802322388
0.491071432828903198 0.246093764901161194 -0.01171875
-0.294642865657806396 -0.4296875 0.38671875
-0.544642865657806396 -0.421875 0.417968779802322388
-0.625 -0.38671875 0.3828125
-3.98561256697779753e-13 0.50390625 0.3046875
0.0892857164144515991 -0.359375 0.34375
0.428571432828903198 -0.08203125 0.35546875
-0.580357134342193604 -0.406249940395355225 0.3984375
0.339285701513290405 -0.22265625 0.3828125
-0.125 -0.4296875 0.35546875
0.491071462631225586 0.234375 -3.18601265161810865e-13
0.571428596973419189 0.226720020174980164 0.0544809773564338684
-0.642857134342193604 -0.367187529802322388 0.37890625
0.142857164144515991 0.48828125 0.27734375
0.0267857145518064499 0.5 0.296875
