ply
format ascii 1.0
element vertex 1022
comment vertices
property float x
property float y
property float z
end_header
0.678571403026580811 -0.0390625037252902985 0.20703125
0.285714298486709595 -0.5 0.4140625
0.625 -0.2734375 0.348959147930145264
-0.00892857275903224945 -0.57421875 0.36328125
0.75 0.01171875 0.30078125
0.196428567171096802 -0.53515625 0.371093690395355225
0.348214298486709595 0.3125 0.33984375
-0.116071425378322601 -0.59375 0.36328125
0.321428567171096802 0.23828125 0.47265625
0.687500059604644775 0.121545739471912384 0.16796875
0.303571462631225586 0.23046875 0.484375
0.214285716414451599 0.17578125 0.53125
0.321428567171096802 0.23828125 0.47265625
0.642857015132904053 0.187501013278961182 0.2109375
0.0446428656578063965 0.04296875 0.609375
0.267857134342193604 0.207031235098838806 0.50390625
0.276785701513290405 -0.51171875 0.40625
-0.125 -0.59375 0.36328125
0.125 0.10546875 0.5859375
0.214285716414451599 0.1640625 0.53515625
0.383928567171096802 -0.45703125 0.3828125
0.741071403026580811 0.00390625 0.32421875
0.5625 -0.33984375 0.37109375
-0.133928582072257996 -0.585937559604644775 0.359375
0.741077423095703125 0.00780840124934911728 0.332032501697540283
0.6875 -0.015625 0.390625
0.0982142910361289978 -0.55078125 0.38671875
0.535714268684387207 -0.37109375 0.390625
-0.250000029802322388 -0.578125 0.37890625
0.160714268684387207 0.121093742549419403 0.566406309604644775
-0.267857134342193604 -0.578125 0.375000029802322388
0.4375 -0.441406190395355225 0.39453125
0.5625 0.2490234375 0.3076171875
0.0803571417927742004 0.04296875 0.6015625
-0.125000014901161194 -0.58203125 0.36328125
0.392857134342193604 0.265624970197677612 0.41796875
0.4375 0.296875 0.312499940395355225
0.0446428507566452026 0.04296875 0.60546875
0.464285761117935181 0.26171875 0.3671875
0.455357164144515991 -0.43359375 0.3984375
0.196428567171096802 0.18359375 0.51953125
-0.196428567171096802 -0.57421875 0.37890625
0.695370376110076904 -0.0187839232385158539 0.210571080446243286
0.616071462631225586 -0.24609375 0.312499940395355225
-0.0625 -0.58203125 0.3671875
0.631757795810699463 -0.0145625770092010498 0.430174857378005981
0.526785731315612793 -0.36328125 0.378906279802322388
0.366071432828903198 -0.464843779802322388 0.390625
0.196428567171096802 -0.53515625 0.37109375
-0.0625 -0.58203125 0.3671875
0.651785731315612793 0.17578125 0.215820297598838806
0.598214328289031982 0.198437497019767761 0.250781238079071045
-0.196428552269935608 -0.578125059604644775 0.38671875
0.214285731315612793 0.184895828366279602 0.529947936534881592
0.625 -0.234375 0.316406190395355225
0.223214283585548401 -0.53515625 0.3828125
0.258928567171096802 -0.5234375 0.40234375
0.375 0.31640625 0.332031309604644775
-0.276785671710968018 -0.578125 0.3671875
0.660714209079742432 -0.265625029802322388 0.33984375
0.142857164144515991 -0.546875 0.3828125
0.428571403026580811 -0.43359375 0.382812440395355225
0.508928596973419189 -0.33203125 0.47265625
0.330357134342193604 -0.484374970197677612 0.394531190395355225
0.464285701513290405 0.28515625 0.3046875
0.696004092693328857 -0.00378970475867390633 0.379240334033966064
-0.223214283585548401 -0.578125 0.37890625
0.544642865657806396 -0.359375 0.38671875
0.660714268684387207 -0.253906220197677612 0.33203125
0.357142895460128784 -0.48046875 0.39453125
0.3125 0.2578125 0.445312529802322388
-0.196428567171096802 -0.5703125 0.378906220197677612
0.0982142835855484009 0.06640625 0.59765625
0.791707694530487061 0.012500423938035965 0.171075344085693359
0.714285731315612793 -0.00390625 0.36328125
0.285714298486709595 -0.4921875 0.41015625
0.312500059604644775 0.23828125 0.476562470197677612
0.419642865657806396 -0.44140625 0.39453125
0.133928567171096802 -0.546875 0.375000029802322388
0.678571343421936035 -0.01171875 0.38671875
0.169642850756645203 0.132812514901161194 0.539062559604644775
0.651785731315612793 0.192871332168579102 0.233530014753341675
0.196428567171096802 -0.53515625 0.3828125
-0.339285671710968018 -0.554687440395355225 0.37890625
0.098214276134967804 0.08984375 0.58984375
0.705357134342193604 -0.0078125 0.37109375
0.178571432828903198 0.11328125 0.55390620231628418
0.321428567171096802 -0.48046875 0.41015625
-0.196428552269935608 -0.5703125 0.37890625
0.0178571436554193497 -0.57421875 0.3671875
0.580224454402923584 0.197344943881034851 0.23398745059967041
0.682218492031097412 0.138538941740989685 0.161293432116508484
0.571428596973419189 -0.32421875 0.43359375
0.151785716414451599 -0.53515625 0.375
0.832244873046875 0.014813348650932312 0.129039868712425232
0.491071432828903198 0.27734375 0.296875
0.160714313387870789 0.128906264901161194 0.546875
0.1875 -0.54296875 0.37109375
0.642857134342193604 -0.29296875 0.359374970197677612
0.375 0.30859375 0.328125
0.401785701513290405 0.300781220197677612 0.3203125
0.580357134342193604 -0.33984375 0.36328125
0.294642865657806396 -0.496093809604644775 0.4140625
0.3125 0.254882842302322388 0.437499970197677612
0.196428567171096802 0.171875 0.5390625
0.714456737041473389 -0.172246053814888 0.311355233192443848
-0.125 -0.58984375 0.35546875
0.205357149243354797 -0.52734375 0.3828125
0.741071403026580811 0.0117187490686774254 0.296875
-0.339285671710968018 -0.55859375 0.37890625
0.845239460468292236 0.0659607946872711182 0.308757811784744263
0.571428596973419189 -0.3203125 0.421875
0.214285716414451599 0.1640625 0.52734375
0.526785731315612793 0.255022287368774414 0.313616067171096802
0.651785790920257568 0.179687529802322388 0.2421875
0.178571447730064392 0.128906279802322388 0.5546875
0.473214298486709595 -0.4296875 0.37890625
0.553571403026580811 -0.32421875 0.44921875
0.83214259147644043 0.0931282639503479004 0.07678985595703125
0.401785701513290405 -0.453125 0.3828125
0.410714238882064819 -0.460937529802322388 0.38671875
-0.303571432828903198 -0.5703125 0.37109375
0.116071432828903198 -0.5546875 0.3828125
0.660714268684387207 -0.2734375 0.359374970197677612
0.857424557209014893 0.0757993385195732117 0.0792249366641044617
0.589284658432006836 0.199869707226753235 0.243490681052207947
0.625000178813934326 -0.269531279802322388 0.348632216453552246
0.696428596973419189 -0.1484375 0.30078125
0.419642865657806396 0.292968779802322388 0.316477388143539429
0.0178571436554193497 0.0234375 0.60546875
-0.107142850756645203 -0.58984375 0.36328125
0.678571403026580811 0.121093735098838806 0.199218764901161194
0.330357164144515991 0.253906279802322388 0.4453125
0.169642850756645203 0.1171875 0.5625
0.419642865657806396 -0.44921875 0.3984375
-0.151785716414451599 -0.58203125 0.3671875
-0.294642865657806396 -0.566406309604644775 0.3671875
0.0892857164144515991 0.046875 0.605468690395355225
0.241071432828903198 -0.515625 0.41015625
0.160714283585548401 -0.546874940395355225 0.37890625
0.25 -0.51171875 0.421875
0.816652953624725342 0.0876119360327720642 0.076363779604434967
0.330357134342193604 -0.4921875 0.3984375
0.196428567171096802 0.1796875 0.5234375
0.616071403026580811 -0.278124988079071045 0.360937505960464478
0.535714268684387207 -0.3828125 0.378906220197677612
0.598214328289031982 -0.30859375 0.3984375
-0.339285671710968018 -0.55859375 0.37890625
0.696428596973419189 -0.00390625 0.378906220197677612
0.223214283585548401 0.20703125 0.51171875
0.258928567171096802 -0.50390625 0.410156279802322388
0.196428537368774414 0.140625 0.54296875
-0.294642865657806396 -0.56640625 0.3671875
-0.223214283585548401 -0.578125 0.3828125
0.717097043991088867 0.0475237630307674408 0.0439949743449687958
-0.125000014901161194 -0.59375 0.36328125
0.232142850756645203 -0.51953125 0.39453125
0.732142925262451172 5.56565427425881332e-13 0.29296875
0.178571432828903198 0.15625 0.5390625
0.782593011856079102 0.0315500833094120026 0.278484910726547241
0.160714268684387207 0.12109375 0.546875
0.714285671710968018 -0.15234375 0.32421875
0.0625 -0.56640625 0.378906279802322388
0.5625 -0.3203125 0.43359375
0.258928567171096802 -0.515625 0.3984375
0.0714285746216773987 0.05078125 0.59375
0.410714298486709595 -0.4609375 0.39453125
0.0178571436554193497 0.02734375 0.61328125
0.00892857089638710022 -0.5703125 0.359375
0.214285716414451599 0.19921875 0.515625
0.625 0.161040991544723511 0.191598668694496155
0.553571403026580811 -0.35546875 0.38671875
0.0803571492433547974 0.0546875 0.60546875
-0.0982142984867095947 -0.58984375 0.36328125
0.553571343421936035 -0.328125 0.4375
0.0803571417927742004 0.0546875 0.60546875
0.625 -0.31640625 0.3671875
-0.205357149243354797 -0.578125 0.3828125
0.651785731315612793 -0.27734375 0.36328125
0.678571403026580811 -0.226562485098838806 0.317708343267440796
-0.0714285746216773987 -0.578125 0.36328125
-0.196428567171096802 -0.57421875 0.37890625
0.410714298486709595 -0.441406220197677612 0.39453125
0.759353935718536377 0.116476811468601227 0.234806105494499207
0.705357134342193604 -0.0117187490686774254 0.3671875
0.383928567171096802 0.3046875 0.32421875
0.383928567171096802 0.26953125 0.40625
0.544642865657806396 -0.359375 0.38671875
0.169642850756645203 0.125 0.54296875
0.607142865657806396 -0.2578125 0.30859375
-0.267857164144515991 -0.58203125 0.37109375
0.579742729663848877 0.206902951002120972 0.257840812206268311
0.580357074737548828 -0.3359375 0.363281220197677612
0.651190400123596191 0.122233942151069641 0.165601626038551331
0.294642865657806396 -0.49609375 0.4140625
0.687500119209289551 -0.227864563465118408 0.34375
0.680061101913452148 -0.0223645716905593872 0.398566961288452148
0.786861181259155273 0.117876119911670685 0.136580824851989746
0.232142835855484009 -0.531250059604644775 0.39453125
0.473214298486709595 -0.406250059604644775 0.39453125
0.1071428582072258 0.0859374925494194031 0.5859375
0.0267857145518064499 0.03125 0.609375
0.616071403026580811 -0.2890625 0.366210907697677612
0.651785731315612793 -0.22265625 0.3203125
0.125 0.1015625 0.578125
0.0178571417927742004 -0.57421875 0.359375
0.00892857182770967484 0.0078125 0.60546875
-0.0446428544819355011 -0.57421875 0.36328125
0.625 -0.30078125 0.35546875
0.915546715259552002 -0.0117547279223799706 0.207835257053375244
0.678571522235870361 -0.196614578366279602 0.330729186534881592
0.678571403026580811 -0.0078125 0.390625
0.392857134342193604 -0.46875 0.39453125
0.0446428582072257996 -0.5703125 0.375
0.383928567171096802 0.269531220197677612 0.40234375
0.473214298486709595 0.273437529802322388 0.36328125
0.642000854015350342 0.23111426830291748 0.176597461104393005
0.321428567171096802 -0.48046875 0.39453125
0.223214283585548401 -0.53125 0.390625
0.75 -9.70583097399668748e-13 0.328125
-0.303571462631225586 -0.5703125 0.37109375
0.178571403026580811 0.144531279802322388 0.52734375
0.660714209079742432 0.126340791583061218 0.1796875
0.473214298486709595 -0.41015625 0.37890625
-0.214285716414451599 -0.58203125 0.38671875
0.0446428582072257996 0.0390625 0.609375
0.622172057628631592 -0.301783263683319092 0.363908559083938599
0.401785701513290405 -0.453125 0.3984375
0.169642850756645203 -0.53515625 0.37890625
0.276785701513290405 -0.51171875 0.41015625
0.0982142835855484009 0.0546875 0.59765625
0.294642865657806396 -0.50390625 0.40234375
0.294642865657806396 0.23828125 0.48046875
-0.303571432828903198 -0.56640625 0.3671875
0.580356836318969727 -0.3203125 0.4140625
0.392857134342193604 0.30859375 0.32421875
0.580357134342193604 -0.3203125 0.41015625
0.160714283585548401 -0.54296875 0.37109375
0.446428596973419189 0.2734375 0.39453125
0.553571462631225586 -0.354166686534881592 0.373697906732559204
0.223214298486709595 0.19140625 0.52734375
0.642857134342193604 -0.2265625 0.3203125
0.4375 -0.4375 0.39453125
0.241071432828903198 -0.5234375 0.390624970197677612
0.339285701513290405 0.25390625 0.453125
-0.178571432828903198 -0.578125 0.37109375
0.178571462631225586 0.15234375 0.55078125
0.455357134342193604 -0.42578125 0.37890625
0.1071428582072258 0.078125 0.59375
-0.214285701513290405 -0.578125 0.3828125
0.660714328289031982 -0.2265625 0.328967750072479248
0.6875 -0.015625 0.390625
0.78776860237121582 0.0363739766180515289 0.203442782163619995
0.741071403026580811 0.0078125 0.3125
0.491071432828903198 0.257812440395355225 0.351562529802322388
0.464285701513290405 -0.41796875 0.37890625
0.732142925262451172 -0.00390625 0.35546875
-0.0625 -0.578125 0.37109375
0.0535714291036128998 0.0390625 0.60546875
0.187499985098838806 0.125 0.54296875
-0.339285701513290405 -0.55859375 0.37890625
0.616071403026580811 -0.0625 0.2109375
-0.321428567171096802 -0.554687559604644775 0.375
0.383928567171096802 0.30859375 0.32421875
0.75 0.00390625 0.32421875
5.87307437925621567e-13 -0.5703125 0.35546875
0.267857670783996582 -0.51953125 0.406250119209289551
-0.223214313387870789 -0.578125059604644775 0.37890625
0.714285790920257568 -0.178712457418441772 0.327149361371994019
0.419642865657806396 -0.44921875 0.3984375
0.303571432828903198 -0.48828125 0.406250029802322388
-0.303571432828903198 -0.562499940395355225 0.3671875
0.0803571417927742004 0.0546875 0.60546875
0.357142865657806396 0.2734375 0.4296875
0.642857134342193604 0.179645746946334839 0.194558233022689819
0.679232180118560791 -0.210203006863594055 0.342703253030776978
0.410714298486709595 -0.4609375 0.38671875
0.160714283585548401 -0.54296875 0.37109375
0.464285701513290405 -0.433593720197677612 0.3828125
0.285714298486709595 -0.5 0.414062470197677612
-0.250000029802322388 -0.578125 0.375
0.482142835855484009 -0.421875 0.38671875
0.624999701976776123 -0.277345776557922363 0.355467081069946289
-0.267857134342193604 -0.578125 0.375
0.205357149243354797 -0.52734375 0.375
0.321428596973419189 -0.48046875 0.39453125
0.625 -0.2890625 0.351562470197677612
0.723214268684387207 -0.0078125 0.35546875
0.241071432828903198 -0.519531309604644775 0.39453125
0.678571343421936035 0.140625 0.1953125
0.678571403026580811 -0.015625 0.390625
0.660714209079742432 -0.265624970197677612 0.34375
0.0714285746216773987 -0.565104186534881592 0.384114563465118408
0.1875 -0.54296875 0.371093720197677612
0.74162524938583374 0.0846049785614013672 0.174462988972663879
0.589285731315612793 -0.25390625 0.30859375
0.714285731315612793 -0.00390625 0.36328125
0.740122973918914795 -0.0165013670921325684 0.313701242208480835
0.732142865657806396 -0.00390625 0.3515625
-0.0178571436554193497 -0.0078125 0.61328125
0.741071403026580811 6.96407168043755576e-12 0.32421875
0.580356955528259277 0.216145843267440796 0.252604156732559204
0.142857149243354797 -0.546875 0.3828125
0.705357134342193604 -0.0078125 0.3671875
-0.0714285746216773987 -0.58203125 0.3671875
0.714285731315612793 -0.160527363419532776 0.30078125
0.75 0.00390625 0.3203125
-0.214285716414451599 -0.578125 0.3828125
0.4375 0.2890625 0.31640625
-0.267857134342193604 -0.578124940395355225 0.375
0.464285671710968018 -0.43359375 0.390625
0.705357134342193604 -0.01171875 0.3671875
0.366071432828903198 -0.46484375 0.40234375
0.160714268684387207 -0.54296875 0.37109375
0.151785716414451599 0.10546875 0.5625
-0.223214283585548401 -0.578125 0.3828125
0.741071403026580811 0.00390625 0.34765625
0.366071432828903198 0.3125 0.3359375
0.20535711944103241 -0.535156190395355225 0.375
0.267857134342193604 0.222656235098838806 0.48828125
0.598214268684387207 -0.3125 0.40625
0.660714209079742432 -0.0390625 0.218750029802322388
0.678571403026580811 -0.0078125 0.390624970197677612
0.214285731315612793 0.191406235098838806 0.511718809604644775
0.625 -0.2734375 0.36328125
0.660714209079742432 -0.234374985098838806 0.328125
0.160714283585548401 -0.53515625 0.375
0.258928567171096802 -0.503906309604644775 0.4140625
0.589285790920257568 0.233597785234451294 0.285150468349456787
0.508928656578063965 -0.3984375 0.390625
0.526785731315612793 0.26171875 0.300781279802322388
0.294642865657806396 -0.4921875 0.41015625
-0.339285671710968018 -0.55859375 0.37890625
0.782971024513244629 0.0953362584114074707 0.166386246681213379
-0.133928567171096802 -0.58984375 0.359375
0.205357149243354797 -0.53515625 0.374999970197677612
0.303571432828903198 -0.5 0.40234375
0.598214209079742432 0.219401046633720398 0.238932296633720398
0.446428567171096802 0.296875 0.3125
0.553571403026580811 -0.3203125 0.4375
0.544642865657806396 -0.37109375 0.390625
0.160714283585548401 0.13671875 0.546875
0.776369154453277588 -0.00119925173930823803 0.384413361549377441
0.0982142835855484009 0.06640625 0.59765625
0.657299995422363281 -0.217816784977912903 0.319990664720535278
0.25 -0.51953125 0.3984375
0.589285731315612793 -0.31640625 0.41015625
0.214285716414451599 -0.53515625 0.37890625
0.670047163963317871 -0.0334333553910255432 0.217218220233917236
0.410714298486709595 0.261718779802322388 0.402343720197677612
0.723214268684387207 -0.0078125 0.35546875
0.635307133197784424 -0.109443053603172302 0.171558648347854614
0.464285701513290405 0.257812470197677612 0.3828125
0.71204531192779541 0.106799431145191193 0.165812909603118896
0.678571403026580811 -0.1875 0.324218720197677612
0.526785731315612793 -0.32421875 0.45703125
0.196428567171096802 0.18359375 0.51953125
0.669015645980834961 0.144292175769805908 0.175874039530754089
0.633928477764129639 -0.292968779802322388 0.37109375
0.196428567171096802 -0.53515625 0.37109375
0.732142865657806396 -5.20123982945819296e-13 0.33984375
0.526785731315612793 -0.33203125 0.46484375
0.0714285746216773987 0.05078125 0.59375
0.446428567171096802 -0.4375 0.37890625
-0.232142865657806396 -0.578125 0.37890625
0.285714298486709595 -0.492187470197677612 0.40234375
0.624999940395355225 0.175150200724601746 0.221853286027908325
0.392857134342193604 -0.44921875 0.390625
0.419642865657806396 -0.44921875 0.3984375
0.1071428582072258 0.078125 0.59375
0.5625 -0.3203125 0.44140625
0.0267857126891613007 0.03125 0.609375
0.6875 -0.191406264901161194 0.335937529802322388
0.526785731315612793 -0.32421875 0.457031220197677612
0.669642806053161621 -0.24609375 0.33203125
0.401785701513290405 -0.46484375 0.390625
0.223214283585548401 0.203125 0.51171875
0.723214268684387207 -0.00390625 0.3671875
0.580357134342193604 -0.31640625 0.41015625
0.321428567171096802 -0.4765625 0.3984375
0.713759064674377441 0.075953260064125061 0.0625191032886505127
0.696428596973419189 -0.01171875 0.375
0.294642835855484009 0.24609375 0.46875
0.125 -0.54296875 0.38671875
0.695485591888427734 -0.163186058402061462 0.300791442394256592
-0.214285716414451599 -0.58203125 0.38671875
0.160714283585548401 0.125 0.5625
-0.116071425378322601 -0.5859375 0.36328125
0.0446428582072257996 0.04296875 0.60546875
0.392857134342193604 -0.4609375 0.40234375
0.0535714291036128998 0.046875 0.60546875
0.535714268684387207 0.246094733476638794 0.2890625
-0.0714285746216773987 -0.582031130790710449 0.3671875
0.1071428582072258 0.07421875 0.589843630790710449
0.544642865657806396 -0.320312529802322388 0.4453125
0.553571403026580811 -0.3515625 0.38671875
0.714285731315612793 -0.0078125 0.359375029802322388
0.258928567171096802 -0.515625 0.41796875
0.6875 -0.00781250093132257462 0.39453125
-0.160714268684387207 -0.57421875 0.36328125
0.553571403026580811 -0.328125 0.4375
0.75 -0.00390625 0.33203125
0.669729471206665039 -0.23827044665813446 0.32820168137550354
0.669642865657806396 -0.01171875 0.394531220197677612
0.678571403026580811 -0.19921875 0.3203125
0.571428596973419189 -0.34375 0.36328125
0.339285701513290405 0.254882782697677612 0.448242157697677612
0.401785701513290405 -0.4609375 0.3828125
0.419642865657806396 0.30078125 0.316406279802322388
0.62598574161529541 0.138675257563591003 0.198320135474205017
0.267857134342193604 -0.519531905651092529 0.40625
0.241071432828903198 -0.5234375 0.390625
0.805265545845031738 0.0912243947386741638 0.209918081760406494
0.482142865657806396 -0.421874970197677612 0.394531279802322388
0.446428567171096802 0.285156279802322388 0.31640625
0.508928596973419189 0.269531220197677612 0.34765625
0.598214268684387207 -0.26171875 0.30859375
0.223214283585548401 0.19140625 0.52734375
0.526785731315612793 0.259114563465118408 0.341145843267440796
-0.0803571417927742004 -0.5859375 0.3671875
-0.160714268684387207 -0.574218809604644775 0.37109375
-0.339285701513290405 -0.55859375 0.37890625
-0.294642865657806396 -0.56640625 0.3671875
0.642857193946838379 0.177137419581413269 0.224125534296035767
0.5 -0.404947906732559204 0.378906190395355225
0.223214298486709595 -0.535156190395355225 0.3828125
0.732142925262451172 -0.00390625 0.359375
0.25 -0.51953125 0.41015625
0.267857164144515991 0.203125014901161194 0.50390625
0.642857253551483154 0.198773831129074097 0.233110293745994568
-0.223214313387870789 -0.578125059604644775 0.3828125
0.5 -0.414062470197677612 0.38671875
-0.151785716414451599 -0.578125 0.36328125
0.0267857145518064499 0.03125 0.609375
0.741049051284790039 0.00363464490510523319 0.347750842571258545
0.383928567171096802 -0.45703125 0.38671875
-0.214285716414451599 -0.578125 0.3828125
0.732142746448516846 -0.152343779802322388 0.312636196613311768
-0.0714285746216773987 -0.578125 0.36328125
-0.214285701513290405 -0.58203125 0.38671875
0.0267857145518064499 -0.56640625 0.367187470197677612
0.276785701513290405 0.21875 0.484375
0.660714209079742432 -0.2734375 0.359375
0.508928596973419189 -0.3984375 0.375
0.762042641639709473 0.0894586071372032166 0.187984779477119446
0.678571343421936035 0.105468742549419403 0.17969869077205658
0.678571403026580811 -0.01953125 0.40625
0.133928582072257996 -0.546875 0.375
0.526785731315612793 -0.328125 0.46484375
0.169642850756645203 0.1484375 0.535156190395355225
0.232142850756645203 -0.52734375 0.386718720197677612
0.0982142835855484009 0.0859374925494194031 0.5859375
-0.160714253783226013 -0.578125 0.37109375
0.741071403026580811 0.01171875 0.29296875
0.464285701513290405 -0.43359375 0.3828125
0.714285790920257568 -0.190189525485038757 0.319219321012496948
0.410714298486709595 -0.4609375 0.38671875
0.339285701513290405 -0.48046875 0.394531279802322388
0.446428567171096802 -0.4296875 0.37890625
0.741071462631225586 0.00781250093132257462 0.33203125
0.0803571417927742004 -0.56640625 0.37890625
0.783883512020111084 0.103228300809860229 0.0288240499794483185
0.705357134342193604 -0.164062514901161194 0.30078125
0.205357179045677185 0.16015625 0.53515625
0.196428567171096802 0.140625 0.527343809604644775
0.214285716414451599 -0.53125 0.375000059604644775
0.642857134342193604 -0.257812529802322388 0.339843720197677612
0.6875 -0.213047996163368225 0.313182920217514038
0.25 -0.5234375 0.3984375
0.660714268684387207 -0.24609375 0.351562470197677612
0.214285716414451599 -0.52734375 0.3828125
0.0446428582072257996 0.0390625 0.609375
0.676584422588348389 -0.00848059821873903275 0.374580323696136475
0.678571403026580811 -0.19140625 0.32421875
0.0267857145518064499 -0.57421875 0.3671875
0.5625 -0.3203125 0.44140625
0.160714283585548401 -0.54296875 0.37109375
0.741071403026580811 0.00390625 0.33984375
0.116071432828903198 0.08984375 0.5859375
0.741071403026580811 0.0078125 0.31640625
-0.214285701513290405 -0.57421875 0.38671875
0.0446428582072257996 -0.56640625 0.375
0.196428552269935608 0.140625 0.5390625
0.648699820041656494 -0.0448623113334178925 0.222542703151702881
0.446428567171096802 -0.4375 0.37890625
0.276785701513290405 -0.49609375 0.40625
0.455357134342193604 -0.43359375 0.37890625
0.482142865657806396 -0.40234375 0.3828125
0.633928537368774414 -0.26171875 0.350260406732559204
0.491071432828903198 -0.398437529802322388 0.37890625
0.625 -0.0703125 0.20703125
0.706238448619842529 -0.00784971844404935837 0.371869266033172607
-0.321428567171096802 -0.55859375 0.37109375
0.0803571417927742004 -0.56640625 0.37890625
0.732945024967193604 0.00851781666278839111 0.297285288572311401
-0.339285701513290405 -0.5546875 0.37890625
0.1875 -0.53515625 0.37890625
0.357142865657806396 -0.46875 0.390625
0.0714285746216773987 0.05078125 0.59375
0.991865575313568115 0.0769892707467079163 0.208860188722610474
0.142857179045677185 0.109375 0.5625
0.392857134342193604 -0.46875 0.3984375
0.205357149243354797 -0.5390625 0.37890625
0.517857134342193604 -0.38671875 0.390625
0.508928656578063965 0.250651091337203979 0.333333313465118408
0.75 0.0078125 0.31640625
0.660714268684387207 -0.03515625 0.210937514901161194
-0.125000014901161194 -0.5859375 0.355468690395355225
0.0803571417927742004 0.0546875 0.60546875
0.709019184112548828 0.112363800406455994 0.190039128065109253
0.553571403026580811 -0.3203125 0.4375
0.0892857089638710022 -0.5546875 0.38671875
-0.125 -0.58984375 0.35546875
0.614383578300476074 -0.0478518642485141754 0.220531642436981201
0.0803571417927742004 -0.56640625 0.375
0.624999940395355225 -0.0625 0.21484375
-0.3125 -0.562499940395355225 0.375
0.0803571417927742004 0.046875 0.58984375
0.705357134342193604 -0.01171875 0.3671875
0.544642925262451172 0.260937511920928955 0.317968815565109253
-0.232142835855484009 -0.582031309604644775 0.3828125
0.714285671710968018 -0.0078125 0.359375
0.571428596973419189 -0.3515625 0.38671875
0.375 -0.4609375 0.39453125
0.544642865657806396 0.254625469446182251 0.300469875335693359
-0.00892856530845165253 -0.0078125 0.609375
0.535714209079742432 -0.363281279802322388 0.375
-0.214285686612129211 -0.578125 0.3828125
0.321428567171096802 -0.48046875 0.39453125
0.714285731315612793 -0.00390625 0.36328125
0.455357134342193604 0.2578125 0.38671875
0.660706996917724609 -0.0351533740758895874 0.214841276407241821
0.535714268684387207 -0.363281279802322388 0.37109375
0.0535714291036128998 0.0390625 0.60546875
0.419642865657806396 0.29296875 0.32421875
-0.339285701513290405 -0.55859375 0.37890625
0.428571432828903198 0.2890625 0.31640625
0.133928567171096802 0.12109375 0.56640625
0.74419713020324707 0.113795913755893707 0.143877133727073669
0.419642865657806396 -0.45703125 0.39453125
0.196428567171096802 -0.5390625 0.37109375
0.321428567171096802 -0.48046875 0.41015625
0.662820994853973389 -0.234375 0.34765625
0.75 0.0117187490686774254 0.30078125
0.75 -1.83424673019794149e-12 0.328125
0.223214283585548401 -0.52734375 0.3828125
0.616071403026580811 -0.25 0.3125
0.383928567171096802 -0.457031220197677612 0.398437529802322388
0.151785716414451599 -0.546875 0.378906279802322388
-0.232142835855484009 -0.5859375 0.378906309604644775
0.795925259590148926 0.0949786156415939331 0.0632058233022689819
0.125 -0.54296875 0.38671875
0.0446428582072257996 0.0390625 0.609375
0.321428567171096802 0.2421875 0.45703125
0.660714209079742432 -0.265625 0.3515625
0.714285731315612793 -0.00390625 0.3671875
0.392857134342193604 0.3046875 0.3203125
0.740242898464202881 -0.00769179081544280052 0.214655026793479919
0.330357134342193604 -0.47265625 0.3984375
0.598214268684387207 0.20310075581073761 0.257775813341140747
0.696451961994171143 -0.000480676069855690002 0.382509678602218628
-0.169642850756645203 -0.578125 0.37890625
0.241071432828903198 -0.515625059604644775 0.40234375
-0.276785671710968018 -0.578125 0.3671875
0.205357149243354797 -0.53515625 0.375
0.00892857182770967484 0.015625 0.60546875
0.741071403026580811 9.08851918962443051e-14 0.32421875
0.160714283585548401 -0.54296875 0.37890625
0.732142865657806396 0.0078125 0.33984375
0.187500014901161194 0.1484375 0.546875
0.330357134342193604 0.26171875 0.430664032697677612
0.428571432828903198 0.26953125 0.3828125
0.258928537368774414 -0.515625059604644775 0.41796875
-0.223214283585548401 -0.578125 0.37890625
0.116071425378322601 0.109375 0.5703125
0.5 0.2578125 0.3671875
0.285714298486709595 -0.4921875 0.41015625
0.589285790920257568 -0.3203125 0.41796875
0.321428567171096802 -0.48046875 0.39453125
0.635590136051177979 0.167247727513313293 0.218749970197677612
0.258928567171096802 0.214843764901161194 0.496093720197677612
0.732142865657806396 2.09666962611154695e-12 0.33984375
0.0535714253783226013 0.046875 0.60546875
-0.169642850756645203 -0.578125 0.37109375
0.4375 0.2890625 0.31640625
0.303571432828903198 -0.50390625 0.41015625
0.142857149243354797 -0.550781309604644775 0.37890625
0.267857134342193604 -0.5 0.40625
0.178571432828903198 0.132812485098838806 0.5546875
0.705272197723388672 -0.0235020741820335388 0.207544445991516113
0.0535714328289031982 0.046875 0.605468869209289551
0.704392790794372559 -0.0230445172637701035 0.385165929794311523
0.741071403026580811 0.00390625 0.3203125
0.339285701513290405 -0.48046875 0.394531279802322388
0.4375 -0.44921875 0.38671875
0.616071403026580811 0.2109375 0.226562514901161194
0.714285731315612793 -0.0078125 0.375
0.616071343421936035 0.21614585816860199 0.263020843267440796
0.639586806297302246 0.15880623459815979 0.211629495024681091
0.678826093673706055 0.120996817946434021 0.19910605251789093
0.705357134342193604 -0.0078125 0.3671875
0.187499985098838806 -0.53515625 0.37890625
0.315020263195037842 -0.316224098205566406 0.488025635480880737
0.616071403026580811 -0.0625 0.2109375
0.75 0.0078125 0.30859375
0.0357142835855484009 0.03515625 0.605468690395355225
0.5 -0.40625 0.390625
0.0535714253783226013 -0.5703125 0.375
0.276785671710968018 0.207031264901161194 0.48828125
0.196428552269935608 0.152343735098838806 0.527343809604644775
-0.25 -0.578125 0.375
0.544642865657806396 -0.32421875 0.453125
0.5 -0.33203125 0.4765625
0.3125 -0.496093839406967163 0.41015625
0.142857149243354797 -0.5390625 0.375
0.553571403026580811 -0.328125 0.4375
0.553571403026580811 -0.32421875 0.44921875
0.651785731315612793 -0.28125 0.34765625
0.392857074737548828 -0.44921875 0.390625
0.0267857126891613007 0.03125 0.609375
0.508928596973419189 0.262695342302322388 0.2998046875
0.1875 -0.53515625 0.37890625
0.651785671710968018 -0.276367217302322388 0.353515625
0.526785731315612793 0.253906190395355225 0.3056640625
-0.223214283585548401 -0.578125 0.37890625
-0.196428567171096802 -0.578125 0.38671875
0.741071403026580811 0.00390625 0.34765625
0.714285731315612793 -0.0078125 0.359375
0.598214268684387207 0.190624997019767761 0.228125005960464478
0.616071403026580811 -0.28515625 0.3671875
-0.303571403026580811 -0.56640625 0.3671875
0.589285731315612793 -0.347656279802322388 0.3671875
0.446428567171096802 0.2890625 0.3046875
0.392857134342193604 0.265625 0.421875059604644775
0.714285731315612793 -0.00390625 0.36328125
0.196428567171096802 0.179687485098838806 0.51953125
0.410714298486709595 0.30078125 0.324218720197677612
0.5625 -0.347656279802322388 0.38671875
0.357142865657806396 0.2734375 0.421875
0.0803571417927742004 0.0429687462747097015 0.6015625
0.544642806053161621 -0.3203125 0.4453125
-0.0714285969734191895 -0.585937440395355225 0.3671875
0.732142865657806396 -0.0078125 0.3515625
0.571428596973419189 -0.32421875 0.43359375
-0.214285716414451599 -0.574218690395355225 0.3828125
0.633928656578063965 -0.303385406732559204 0.369791686534881592
0.267857134342193604 0.203125 0.5
0.169642850756645203 0.1328125 0.55859375
0.526785731315612793 0.242187514901161194 0.328125
-0.0892857164144515991 -0.5859375 0.359375
0.241071432828903198 -0.5234375 0.40234375
0.187499985098838806 -0.53515625 0.3671875
0.223214283585548401 -0.5234375 0.39453125
0.5 0.268554717302322388 0.3037109375
0.446428567171096802 0.296875 0.31640625
0.133928567171096802 -0.546875059604644775 0.375
0.65176689624786377 -0.0575609244406223297 0.234252169728279114
0.0803571492433547974 0.0546874962747097015 0.60546875
0.553571403026580811 -0.37109375 0.37109375
0.651785671710968018 0.183593764901161194 0.2001953125
0.383928567171096802 -0.46875 0.40234375
0.535714268684387207 -0.3671875 0.371093720197677612
0.714285731315612793 -0.00390625 0.36328125
0.678571462631225586 -0.0078125 0.3984375
0.294642865657806396 0.2421875 0.4765625
-0.321428537368774414 -0.5625 0.37109375
0.223214283585548401 -0.53125 0.39453125
0.798885762691497803 0.063998103141784668 0.0721059069037437439
0.125 -0.55078125 0.38671875
0.741071403026580811 0.00390625046566128731 0.30078125
0.0892857164144515991 0.0546875 0.6015625
0.750000059604644775 0.0117187490686774254 0.28515625
0.863776564598083496 0.077182382345199585 0.139951959252357483
0.196428567171096802 -0.54296875 0.37890625
0.383928567171096802 -0.47265625 0.39453125
0.0446428582072257996 0.03515625 0.609375
0.419642865657806396 0.296874970197677612 0.32421875
0.107142873108386993 -0.5546875 0.37890625
-0.1071428582072258 -0.5859375 0.359375
0.705357134342193604 -0.0078125 0.378906220197677612
-0.303571432828903198 -0.5703125 0.37109375
0.705357134342193604 -0.0078125 0.3671875
0.151785716414451599 0.109375014901161194 0.558593869209289551
0.151785716414451599 -0.54296875 0.37109375
0.526785731315612793 -0.33203125 0.45703125
-0.0714285746216773987 -0.58203125 0.3671875
0.625130891799926758 -0.0607199333608150482 0.206053569912910461
0.482142865657806396 0.26953125 0.30859375
0.5625 -0.351562529802322388 0.3671875
0.0446428582072257996 0.0390625 0.609374880790710449
0.535714209079742432 -0.359375 0.3828125
0.57138293981552124 0.232924580574035645 0.29684746265411377
0.303571432828903198 -0.48828125 0.40625
0.473214298486709595 0.2578125 0.37890625
-0.339285701513290405 -0.554687559604644775 0.37890625
0.276785671710968018 -0.49609375 0.40625
0.651785790920257568 0.169245317578315735 0.215750217437744141
0.151785716414451599 0.117187507450580597 0.570312559604644775
-0.107142850756645203 -0.5859375 0.359375
0.642857134342193604 -0.2890625 0.364583343267440796
0.589285731315612793 -0.3125 0.40234375
0.535714328289031982 -0.328125 0.453125
-0.25 -0.578125 0.375
0.196428567171096802 0.140625 0.542968690395355225
-0.0982142612338066101 -0.58984375 0.36328125
0.526785731315612793 -0.386718720197677612 0.38671875
0.535714268684387207 -0.32421875 0.44921875
0.670582473278045654 0.165807217359542847 0.181649088859558105
0.1071428582072258 -0.550781309604644775 0.390625
0.383928567171096802 0.27734375 0.41015625
0.701368927955627441 -0.078327275812625885 0.220497161149978638
0.705357134342193604 -0.15234375 0.324218720197677612
0.375 -0.46875 0.38671875
0.589285731315612793 -0.31640625 0.4140625
0.321428567171096802 -0.48046875 0.39453125
0.77476966381072998 0.0769699662923812866 0.0391215644776821136
0.634309768676757812 0.0432846173644065857 0.316793590784072876
0.678571403026580811 -0.20703125 0.3203125
0.553571403026580811 -0.328125 0.4375
0.419642865657806396 -0.44140625 0.37890625
0.607142865657806396 0.219886720180511475 0.237575098872184753
0.187499985098838806 0.136718720197677612 0.546875
0.732142865657806396 0.0078125 0.30078125
0.303571432828903198 -0.5 0.406249970197677612
0.3125 -0.49609375 0.3984375
0.488614141941070557 0.274503558874130249 0.302345752716064453
0.0803571417927742004 -0.558593809604644775 0.37890625
0.339285701513290405 0.26171875 0.433593779802322388
0.732416868209838867 -0.0582757815718650818 0.158971235156059265
0.00892852433025836945 0.0273437537252902985 0.609375
-0.258928567171096802 -0.58203125 0.375
0.375002801418304443 -0.46484375 0.40234375
-0.196428567171096802 -0.578125 0.38671875
0.142857134342193604 -0.55078125 0.3828125
0.678571403026580811 -0.01171875 0.40234375
0.214285716414451599 -0.52734375 0.3828125
-0.196428567171096802 -0.57421875 0.378906220197677612
0.625 -0.0703125 0.20703125
0.241071432828903198 -0.523437559604644775 0.40234375
0.151785716414451599 0.1171875 0.5703125
0.508928596973419189 -0.3984375 0.390625
-0.232142850756645203 -0.578125 0.37890625
0.6875 -0.015625 0.390625
-0.0982142835855484009 -0.5859375 0.3671875
0.722635984420776367 -0.0866862311959266663 0.185420691967010498
0.214285716414451599 -0.53515625 0.37890625
0.714285731315612793 -0.01171875 0.375
0.0357142873108386993 -0.56640625 0.37109375
0.6875 -0.015625 0.390625
0.544642865657806396 -0.37890625 0.37890625
0.116071425378322601 -0.55859375 0.3828125
-0.267857134342193604 -0.58203125 0.37109375
0.0892857164144515991 0.0546875 0.59375
0.535714268684387207 -0.32421875 0.453125
0.241071432828903198 -0.51171875 0.40234375
0.357142865657806396 -0.46484375 0.40234375
0.562499940395355225 -0.355468720197677612 0.386718779802322388
0.678571403026580811 -0.203125 0.3359375
0.303571432828903198 0.23046875 0.46875
0.196428582072257996 0.1787109375 0.515625059604644775
0.71594691276550293 -0.165455728769302368 0.327435910701751709
0.392857104539871216 0.277343720197677612 0.40625
0.214285716414451599 0.1640625 0.53125
0.1071428582072258 0.08203125 0.5859375
0.00892857182770967484 0.015625 0.60546875
0.651785731315612793 -0.222656279802322388 0.3203125
0.562478423118591309 0.23113483190536499 0.273398429155349731
0.107142850756645203 0.07421875 0.58984375
0.383928567171096802 -0.46875 0.38671875
0.75 0.00390625 0.29296875
0.339285761117935181 0.2578125 0.433593779802322388
0.383928567171096802 0.277343779802322388 0.417968720197677612
0.276785701513290405 -0.507812559604644775 0.3984375
0.580357193946838379 -0.31640625 0.4140625
0.669642865657806396 -0.0234375 0.414062529802322388
0.25 -0.51953125 0.41015625
0.580357074737548828 -0.325195372104644775 0.3759765625
0.294642865657806396 -0.50390625 0.402343779802322388
0.680117547512054443 0.152171507477760315 0.182928860187530518
0.732142865657806396 0.0078125 0.33984375
0.598214268684387207 -0.3125 0.40625
0.455357134342193604 0.261718779802322388 0.38671875
0.5 -0.3359375 0.48046875
0.276785731315612793 -0.50390625 0.4140625
0.633928596973419189 -0.29296875 0.351562470197677612
0.116071440279483795 -0.5546875 0.3828125
0.383928567171096802 -0.4609375 0.3828125
-0.0982142910361289978 -0.58984375 0.363281279802322388
0.375 0.31640625 0.33203125
0.57369840145111084 0.221865206956863403 0.288286000490188599
0.526785731315612793 -0.371093720197677612 0.37109375
0.348214298486709595 -0.46875 0.3984375
0.714285731315612793 -0.0078125 0.37109375
-0.160714283585548401 -0.57421875 0.371093720197677612
0.276785701513290405 -0.515625 0.41015625
0.678571403026580811 -0.01171875 0.386718720197677612
0.81605064868927002 0.0818542912602424622 0.131943866610527039
-0.214285716414451599 -0.578125 0.3828125
-0.160714283585548401 -0.578125 0.37109375
-0.0267857145518064499 -0.570312440395355225 0.363281220197677612
0.705357134342193604 -0.184246674180030823 0.31187167763710022
0.464285701513290405 -0.43359375 0.39453125
0.633928596973419189 -0.2265625 0.31640625
0.0178571436554193497 0.0234375 0.609375
0.625280618667602539 0.0196473691612482071 0.18736034631729126
0.285714268684387207 0.21484375 0.49609375
0.214285716414451599 -0.535156309604644775 0.38671875
0.715005397796630859 -0.0235273651778697968 0.399171411991119385
0.437500029802322388 -0.429687470197677612 0.386718779802322388
0.276785701513290405 0.2265625 0.492187529802322388
0.687499940395355225 -0.217773407697677612 0.342773467302322388
0.392857134342193604 -0.468749970197677612 0.3984375
0.321428626775741577 0.257812529802322388 0.4375
0.383928567171096802 -0.4609375 0.3828125
0.741071403026580811 0.0117187490686774254 0.30078125
0.734177708625793457 0.00803107209503650665 0.338785260915756226
-0.205357134342193604 -0.578125 0.3828125
0.801486730575561523 0.0647494047880172729 0.0147273372858762741
0.33928564190864563 -0.48828125 0.406249970197677612
0.303571492433547974 -0.5 0.41015625
0.428571432828903198 0.2734375 0.40234375
0.491071432828903198 0.273437559604644775 0.359375
0.598214328289031982 -0.32421875 0.3828125
-0.0178571436554193497 -0.00390625 0.61328125
0.125 0.1171875 0.56640625
0.406766980886459351 -0.122046440839767456 0.0618429705500602722
0.294642865657806396 -0.4921875 0.394531220197677612
0.348214298486709595 0.31640625 0.34375
0.714285731315612793 -0.00390625 0.3671875
0.656908392906188965 0.144222155213356018 0.159919872879981995
0.348214298486709595 -0.46875 0.3984375
0.107142865657806396 -0.550781369209289551 0.37890625
0.464285701513290405 0.2578125 0.37890625
0.348214238882064819 -0.48046875 0.40625
0.223214298486709595 -0.53125 0.3828125
0.473214268684387207 0.277343779802322388 0.3046875
0.5 -0.335937470197677612 0.48046875
0.446428567171096802 0.28125 0.3125
0.622031450271606445 0.220098540186882019 0.132556602358818054
0.562334597110748291 0.227610990405082703 0.29784509539604187
0.0267857145518064499 0.02734375 0.609375
-0.116071417927742004 -0.5859375 0.36328125
0.571428596973419189 -0.3203125 0.4375
0.0178571436554193497 0.0234375 0.609375
0.732142865657806396 -0.00390625 0.34375
0.303571432828903198 0.25390625 0.4609375
0.151785716414451599 -0.54296875 0.37109375
0.642857134342193604 -0.287499994039535522 0.371093720197677612
0.1875 0.16796875 0.53125
0.116071425378322601 0.0937500074505805969 0.5859375
0.366071462631225586 -0.46875 0.40625
0.598214268684387207 -0.320312470197677612 0.39453125
0.330357134342193604 0.265625 0.44140625
-0.223214268684387207 -0.578125 0.3828125
0.696428596973419189 -0.01953125 0.210937485098838806
0.196428567171096802 -0.5390625 0.3828125
-0.00892857182770967484 -2.96582138188672406e-12 0.609375
0.723214328289031982 -0.140625014901161194 0.3203125
0.169642850756645203 -0.53125 0.37890625
0.62152475118637085 -0.052957732230424881 0.211611747741699219
0.366071432828903198 0.26171875 0.421875
0.276785701513290405 -0.5078125 0.414062529802322388
0.392857134342193604 -0.44921875 0.386718779802322388
-0.0714285671710968018 -0.58203125 0.3671875
-2.30797694324158531e-13 -0.00390625 0.60546875
0.0624999925494194031 -0.5625 0.375
0.616071522235870361 -0.292968809604644775 0.37890625
0.267857134342193604 -0.515625 0.402343779802322388
0.419642895460128784 -0.44921875 0.37890625
-0.196428567171096802 -0.578125059604644775 0.38671875
-0.214285701513290405 -0.57421875 0.3828125
0.669642865657806396 -0.03125 0.2109375
0.655087053775787354 0.177237674593925476 0.233583167195320129
0.1875 0.128906264901161194 0.55078125
-0.267857134342193604 -0.58203125 0.37109375
0.1875 -0.53515625 0.37890625
0.0982142835855484009 0.06640625 0.59765625
0.678571403026580811 -0.236979171633720398 0.347656220197677612
-0.232142820954322815 -0.578125 0.37890625
-0.294642865657806396 -0.57421875 0.3671875
0.517857134342193604 -0.375 0.37109375
0.723214268684387207 -3.35640413032245455e-12 0.36328125
0.482142865657806396 0.27734375 0.3671875
-0.196428552269935608 -0.57421875 0.37890625
0.741082072257995605 -0.000336566881742328405 0.324143677949905396
0.589285671710968018 0.22734348475933075 0.282035261392593384
0.285714298486709595 -0.507812440395355225 0.406249970197677612
0.285714298486709595 0.238281235098838806 0.48046875
0.383928567171096802 0.312499970197677612 0.32421875
0.607142865657806396 -0.29296875 0.359375029802322388
0.339285701513290405 -0.48828125 0.40234375
0.6875 -0.015625 0.390625
0.5 0.269531279802322388 0.3515625
0.714285731315612793 -0.0078125 0.359375
0.4375 -0.429687470197677612 0.3828125
0.725975275039672852 0.112088479101657867 0.163870349526405334
-0.205357149243354797 -0.578125 0.3828125
-0.214285716414451599 -0.57421875 0.38671875
0.708428442478179932 -0.0430417805910110474 0.339259892702102661
0.169642850756645203 0.14453125 0.55078125
0.455357134342193604 -0.43359375 0.37890625
0.392857134342193604 -0.453124940395355225 0.3828125
0.535714268684387207 -0.324218779802322388 0.4453125
0.669642865657806396 -0.2529296875 0.351562529802322388
0.375 -0.460937470197677612 0.394531220197677612
0.205357149243354797 -0.5390625 0.37890625
0.553571403026580811 -0.328125 0.44921875
0.669642865657806396 -0.24609375 0.33203125
0.814599990844726562 -0.0886364206671714783 0.236661419272422791
0.1071428582072258 -0.5546875 0.378906279802322388
0.321428567171096802 -0.49609375 0.40234375
0.625 -0.296875 0.37890625
0.401785701513290405 0.26953125 0.402343690395355225
0.707111179828643799 0.0896427705883979797 0.168882802128791809
0.205357149243354797 0.17578125 0.507812440395355225
0.133928582072257996 0.12109375 0.56640625
0.678571403026580811 -0.0117187490686774254 0.38671875
-8.94560033687374911e-12 0.00390625046566128731 0.61328125
0.0178571436554193497 -0.57421875 0.359375
0.1071428582072258 0.08203125 0.5859375
-0.339285701513290405 -0.55859375 0.37890625
-0.25 -0.578125 0.374999970197677612
-0.00892857275903224945 -0.56640625 0.35546875
-0.196428567171096802 -0.578125 0.38671875
0.178571447730064392 0.13671875 0.53515625
-0.125 -0.585937440395355225 0.35546875
0.0267857164144515991 0.0273437481373548508 0.609375
0.6875 -0.17578125 0.3125
0.619958460330963135 -0.0549704991281032562 0.206792131066322327
0.169642850756645203 0.14453125 0.542968690395355225
0.116071425378322601 0.109375 0.58203125
0.348214298486709595 0.3125 0.33984375
0.625 -0.2421875 0.31640625
0.0982142835855484009 0.0703125 0.58984375
0.196428567171096802 0.140625 0.54296875
0.0982142910361289978 -0.55078125 0.390625029802322388
0.526785731315612793 -0.32421875 0.45703125
0.348214298486709595 0.31640625 0.335937470197677612
0.0178571436554193497 0.02734375 0.6171875
-0.267857104539871216 -0.58203125 0.37109375
0.607142806053161621 -0.3125 0.359375
0.232142850756645203 -0.51953125 0.39453125
0.375 0.30859375 0.328125
0.723214268684387207 -0.1484375 0.320312470197677612
0.25 0.19921875 0.49609375
0.223214283585548401 -0.53125 0.3828125
0.116071425378322601 0.1015625 0.57421875
-0.178571447730064392 -0.578125119209289551 0.37109375
0.526785731315612793 -0.33203125 0.45703125
0.732142865657806396 -0.00390625 0.34375
0.651785731315612793 -0.265625 0.359375
0.517857134342193604 -0.39453125 0.37890625
0.223214283585548401 0.19140625 0.52734375
0.00892857275903224945 0.015625 0.60546875
0.160714283585548401 0.11328125 0.55078125
0.517857193946838379 -0.39453125 0.38671875
0.553571403026580811 -0.3203125 0.4453125
0.627449512481689453 -0.0598152242600917816 0.202166751027107239
0.142857149243354797 -0.55078125 0.37890625
0.3125 -0.48046875 0.3984375
0.357142865657806396 0.257812470197677612 0.429687470197677612
0.665247976779937744 -0.214290782809257507 0.29943382740020752
-0.116071425378322601 -0.59375 0.359375
-0.0982142835855484009 -0.5859375 0.3671875
0.625 -0.0546875 0.21484375
0.670232236385345459 0.101489350199699402 0.194674044847488403
0.75 0.00390625 0.32421875
0.741071403026580811 1.27656316507157586e-12 0.34375
0.5 -0.3359375 0.48046875
0.669642865657806396 0.118880361318588257 0.175305992364883423
0.3125 0.248697921633720398 0.453125
0.705357134342193604 -0.203125 0.328125
-0.116071425378322601 -0.5859375 0.35546875
0.446428596973419189 -0.429687529802322388 0.378906220197677612
0.714285731315612793 -0.00390625 0.3671875
0.537498533725738525 -0.0785821229219436646 0.202790766954421997
0.151785716414451599 0.12109375 0.55078125
-0.196428552269935608 -0.57421875 0.37890625
0.757306396961212158 -0.0712372511625289917 0.248332932591438293
0.285714298486709595 0.23828125 0.48046875
0.303571432828903198 -0.5 0.41015625
0.5 -0.41015625 0.37890625
0.41230309009552002 -0.448036164045333862 0.387604981660842896
0.598214209079742432 0.230468735098838806 0.25
-0.0892857164144515991 -0.5859375 0.359375
0.151785716414451599 0.109375 0.5703125
0.5625 -0.3203125 0.43359375
0.6875 -0.235351547598838806 0.335937529802322388
0.294642865657806396 -0.48828125 0.406250029802322388
0.321428567171096802 0.25 0.4453125
0.0446428582072257996 0.03515625 0.609375
0.348214298486709595 -0.48046875 0.40625
0.0803571566939353943 -0.55859375 0.375
0.571428596973419189 -0.32421875 0.42578125
0.5 0.269531339406967163 0.347656488418579102
0.419642865657806396 0.2890625 0.3203125
0.642541944980621338 0.0146658299490809441 0.474898636341094971
0.741071403026580811 0.00390625 0.33984375
0.428571403026580811 0.2890625 0.31640625
0.723214268684387207 -0.15625 0.30078125
-0.25 -0.578125 0.375
0.169642850756645203 -0.53515625 0.3671875
0.276785701513290405 -0.49609375 0.41015625
0.0625 -0.56640625 0.37109375
0.544642865657806396 -0.3203125 0.4453125
0.491071432828903198 0.2734375 0.36328125
0.716138839721679688 -0.053536638617515564 0.271537065505981445
0.383928567171096802 -0.468750059604644775 0.38671875
-0.321428567171096802 -0.5546875 0.375
-0.330357164144515991 -0.5546875 0.375
0.169642850756645203 0.125 0.55859375
0.348214298486709595 0.26953125 0.41015625
0.464285701513290405 -0.43359375 0.3828125
0.696428537368774414 -0.152343735098838806 0.313802063465118408
0.625 -0.05859375 0.207031235098838806
0.446428567171096802 -0.42578125 0.390625
0.160714283585548401 0.125 0.546875
0.276785701513290405 -0.49609375 0.406249970197677612
0.482142865657806396 -0.40234375 0.3828125
0.0446428582072257996 0.03515625 0.609375
0.3125 -0.49609375 0.3984375
-0.00892857182770967484 -0.56640625 0.35546875
