ply
format ascii 1.0
element vertex 1006
comment vertices
property float x
property float y
property float z
end_header
0.607142865657806396 -0.16015625 -0.12109375
-0.214285716414451599 -0.105471260845661163 -0.292970359325408936
0.151785716414451599 -0.24609375 -0.359375
-0.0714285746216773987 -0.21484375 -0.371093779802322388
-0.267857134342193604 -0.06640625 0.101562492549419403
0.232142835855484009 -0.265625 -0.35546875
-0.3125 -0.109374992549419403 0.18359375
-0.3125 -0.13671875 0.22265625
0.25 -0.26171875 -0.359375
0.375000029802322388 -0.2646484375 -0.354492157697677612
-0.232142850756645203 0.0507812462747097015 -0.0507812462747097015
-0.3125 -0.125 0.20703125
-0.321428567171096802 -0.14453125 0.23046875
0.375 -0.2734375 -0.3203125
0.160714313387870789 -0.2421875 -0.3828125
-0.375 -0.23828125 0.3359375
0.0178571436554193497 -0.226562514901161194 -0.394531279802322388
0.598214328289031982 -0.174479171633720398 -0.14453125
-0.125 -0.1953125 -0.359375
-0.0267857145518064499 -0.25 -0.37890625
0.598214387893676758 -0.165364593267440796 -0.13671875
-0.348214298486709595 -0.1796875 0.242187485098838806
-0.357142865657806396 -0.1796875 0.25
-0.303571432828903198 -0.1171875 0.2109375
-0.196428567171096802 -0.078125 -0.25390625
0.214285716414451599 -0.234375014901161194 -0.375
-0.330357164144515991 -0.13671875 0.2265625
-0.321428567171096802 -0.1015625 0.171875
-0.232142850756645203 0.0546874962747097015 -0.0117187490686774254
-0.357142895460128784 -0.1796875 0.26171875
-0.223214298486709595 -0.046875 -0.2421875
-0.214285716414451599 0.1640625 0.132812485098838806
-0.366071432828903198 -0.23828125 0.33984375
-0.258928567171096802 -0.0468750037252902985 0.08203125
-0.214285731315612793 0.0625 -0.0546875
-0.160714283585548401 -0.134381234645843506 -0.311265647411346436
-0.169642850756645203 0.088541664183139801 -0.0859375074505805969
-0.1071428582072258 0.1640625 0.00390625
-0.241071432828903198 0.0625 -0.03515625
-0.1875 -0.1015625 -0.3046875
0.598214328289031982 -0.160156264901161194 -0.122395835816860199
-0.125 0.13671875 -0.0390625
-0.205357149243354797 0.171875 0.117187492549419403
0.571428656578063965 -0.115625008940696716 -0.12890625
-0.196428567171096802 0.1796875 0.1015625
-0.133928582072257996 0.17578125 0.0390625037252902985
-0.348214298486709595 -0.18359375 0.2421875
-0.196428582072257996 -0.04296875 -0.2314453125
-0.116071388125419617 -0.1875 -0.351562529802322388
0.419642835855484009 -0.261718779802322388 -0.296875059604644775
0.1875 -0.24609375 -0.359375
-0.196428582072257996 -0.12109375 -0.30859375
0.169642850756645203 -0.25390625 -0.37890625
-0.151785716414451599 0.1796875 0.06640625
-0.0625 -0.22265625 -0.3515625
-0.0267857145518064499 -0.234375 -0.359375
-0.125 0.14453125 0.015625
0.571428596973419189 -0.121093742549419403 -0.1171875
-0.133928567171096802 0.10546875 -0.06640625
-0.142857164144515991 -0.19140625 -0.332031220197677612
0.125 -0.24609375 -0.36328125
-0.357142865657806396 -0.1953125 0.3125
0.464285701513290405 -0.2421875 -0.27734375
-0.151785731315612793 0.0976562425494194031 -0.078125
-0.160706505179405212 -0.128906965255737305 -0.300810128450393677
-0.00892857275903224945 -0.2265625 -0.3671875
-0.205357149243354797 0.015625 -0.16015625
-0.366071432828903198 -0.2421875 0.34375
0.580357074737548828 -0.175781264901161194 -0.13671875
-0.375 -0.22265625 0.33984375
0.517857134342193604 -0.235156252980232239 -0.219531238079071045
-0.267857134342193604 0.03515625 0.0195312537252902985
-0.267857134342193604 0.0273437518626451492 0.0273437518626451492
-0.1071428582072258 0.21484375 0.04296875
-0.223214283585548401 -0.071614585816860199 -0.26171875
-0.366071432828903198 -0.2109375 0.32421875
0.5625 -0.132031247019767761 -0.116406247019767761
-0.366071432828903198 -0.2109375 0.32421875
-0.151785716414451599 0.1796875 0.0546874962747097015
0.517857134342193604 -0.234375 -0.234375
0.0982142835855484009 -0.23828125 -0.390625
-0.241071432828903198 0.0546875 -0.01171875
0.133928567171096802 -0.226562514901161194 -0.37890625
0.232142850756645203 -0.26171875 -0.363281220197677612
-0.151785716414451599 0.18359375 0.05859375
0.160714283585548401 -0.23046875 -0.37890625
-0.214285701513290405 -0.0937500074505805969 -0.2734375
-0.321428567171096802 -0.10546875 0.187500014901161194
-0.357142865657806396 -0.19921875 0.31640625
-0.0357142873108386993 -0.23046875 -0.3828125
-0.258928567171096802 0.0312500037252902985 0.015625
-0.0982142984867095947 0.23046875 0.0703125
-0.312499970197677612 -0.1015625 0.147135421633720398
0.0535714291036128998 -0.234375014901161194 -0.390625
0.383928567171096802 -0.2578125 -0.312499940395355225
-0.1875 0.0898437425494194031 -0.09375
-0.303571432828903198 -0.109375 0.183593720197677612
-0.214285716414451599 0.0820312350988388062 -0.0859375074505805969
-0.232142850756645203 0.0390625 -0.00390625
-0.151785716414451599 0.23828125 0.12890625
-0.142857149243354797 -0.16796875 -0.34765625
-0.142857149243354797 -0.19921875 -0.34765625
-0.178570091724395752 -0.119862325489521027 -0.31906205415725708
-0.267857134342193604 0.015625 0.06640625
-0.0803571417927742004 -0.234375014901161194 -0.3671875
-0.223214283585548401 0.0429687537252902985 -0.12890625
-0.223214253783226013 -0.07421875 -0.24609375
-0.0803571268916130066 -0.23046875 -0.374999970197677612
-0.169642850756645203 -0.11328125 -0.289062470197677612
-0.089285723865032196 0.194151490926742554 0.0324850045144557953
-0.098214268684387207 -0.222656264901161194 -0.34375
0.464285701513290405 -0.23828125 -0.269531279802322388
-0.116071417927742004 0.23828125 0.09375
-0.196428567171096802 -0.01953125 -0.199218764901161194
-0.00892857275903224945 -0.238281235098838806 -0.3828125
-0.169642850756645203 0.10546875 -0.06640625
0.0625 -0.21875 -0.3828125
-0.151785716414451599 -0.1953125 -0.34375
-0.142857149243354797 0.23828125 0.12109375
-0.125 -0.21484375 -0.34765625
-0.330357134342193604 -0.1328125 0.22265625
0.232142850756645203 -0.26171875 -0.3671875
-0.142857149243354797 -0.203125 -0.33984375
0.5625 -0.1728515625 -0.137695297598838806
0.535714268684387207 -0.23828125 -0.203125
-0.160714283585548401 0.234375 0.1484375
0.535714268684387207 -0.210937485098838806 -0.203125
0.535714328289031982 -0.234375014901161194 -0.1953125
-0.205357134342193604 0.0523437485098838806 -0.117968752980232239
0.482142865657806396 -0.25390625 -0.28125
-0.366071432828903198 -0.18359375 0.26953125
-0.339285701513290405 -0.18359375 0.25390625
-0.107142850756645203 -0.200520828366279602 -0.364583283662796021
-0.151785716414451599 0.24609375 0.128906220197677612
-0.214285716414451599 0.01953125 -0.19140625
0.553571403026580811 -0.25 -0.23046875
-0.116071425378322601 -0.1875 -0.35546875
-0.0535714291036128998 -0.2421875 -0.37890625
-0.214285716414451599 0.1640625 0.1328125
-0.125 0.12109375 -0.0390625
0.357142835855484009 -0.26953125 -0.34375
-0.00892857182770967484 -0.242187514901161194 -0.3671875
-0.142857164144515991 -0.167968764901161194 -0.34765625
0.482142865657806396 -0.25390625 -0.28125
-0.383928567171096802 -0.22265625 0.33984375
0.374999940395355225 -0.265625 -0.359375
-0.303571462631225586 -0.101562492549419403 0.132812514901161194
-0.241071432828903198 0.05859375 -0.03125
-0.151785716414451599 0.109375 -0.07421875
-0.0803571492433547974 -0.23046875 -0.34765625
-0.0982142835855484009 0.140625 -0.0429687537252902985
-0.321428567171096802 -0.1328125 0.2265625
-0.348214298486709595 -0.18359375 0.26171875
-0.0982142835855484009 0.171875014901161194 0.01953125
-0.205357149243354797 0.01171875 -0.199218764901161194
0.482142806053161621 -0.2421875 -0.257812529802322388
-0.0267857145518064499 -0.2265625 -0.375
-0.0714285746216773987 -0.23828125 -0.36328125
-0.205357149243354797 -0.03125 -0.21484375
-0.214285716414451599 -0.02734375 -0.2109375
0.151785716414451599 -0.23828125 -0.3828125
-0.267857134342193604 -0.0234375018626451492 0.0664062649011611938
0.589285731315612793 -0.1875 -0.167968735098838806
-0.0803571417927742004 -0.23828125 -0.37109375
0.401785701513290405 -0.26953125 -0.312499970197677612
0.553571403026580811 -0.125 -0.12109375
-0.169642850756645203 0.23828125 0.16796875
0.517857134342193604 -0.240885421633720398 -0.21484375
0.241071432828903198 -0.242187485098838806 -0.347656220197677612
-0.339285701513290405 -0.15625 0.23046875
0.491071432828903198 -0.236979171633720398 -0.252604156732559204
-0.25 -0.01171875 0.07421875
-0.0714285820722579956 -0.2265625 -0.37890625
-0.25 0.0507812462747097015 -0.00390625
0.616071462631225586 -0.13671875 -0.11328125
-0.125 0.234375 0.0859375074505805969
-0.303571432828903198 -0.109375 0.15625
0.553571403026580811 -0.18359375 -0.17578125
-0.375 -0.23828125 0.34765625
-0.267857134342193604 -0.0234375 0.08203125
-0.232142835855484009 0.0625 -0.0585937462747097015
-0.160714283585548401 0.234375 0.14453125
-0.321428567171096802 -0.1328125 0.2265625
-0.1875 -0.05859375 -0.26953125
0.526785731315612793 -0.2578125 -0.2265625
0.482142865657806396 -0.25390625 -0.2890625
-0.223214283585548401 0.078125 -0.0898437649011611938
0.196428537368774414 -0.2578125 -0.355468720197677612
-0.214285701513290405 -0.078125 -0.27734375
-0.133928567171096802 -0.171875 -0.328125
-0.133928567171096802 0.242187514901161194 0.12109375
-0.107142865657806396 0.21875 0.0546874925494194031
-0.0892857164144515991 -0.2265625 -0.34765625
-0.133928567171096802 0.23828125 0.109375
0.303571462631225586 -0.2421875 -0.359375
-0.25 -0.00390625 0.0625
0.562500178813934326 -0.133789077401161194 -0.1220703125
0.223214313387870789 -0.26171875 -0.36328125
-0.375 -0.2265625 0.33203125
-0.142857164144515991 0.25 0.12109375
-0.125 -0.1953125 -0.332031220197677612
-0.142857149243354797 0.17578125 0.0546875037252902985
-0.169642850756645203 0.23828125 0.15234375
-0.366071403026580811 -0.199218735098838806 0.32421875
-0.1071428582072258 0.2265625 0.07421875
-0.205357149243354797 -0.00390625 -0.21875
-0.339285701513290405 -0.171875 0.24609375
-0.366071432828903198 -0.21875 0.328125
-0.357142865657806396 -0.19921875 0.3203125
-0.196428567171096802 -0.05859375 -0.2421875
-0.0357142910361289978 -0.230468764901161194 -0.3828125
0.366071432828903198 -0.24609375 -0.33984375
-0.214285716414451599 0.1640625 0.1328125
-0.142857134342193604 0.23828125 0.12109375
-0.169642850756645203 0.109375007450580597 -0.06640625
0.5625 -0.17578125 -0.1796875
0.303571432828903198 -0.253906190395355225 -0.36328125
0.553571403026580811 -0.125 -0.11328125
-0.196428567171096802 -0.09765625 -0.30078125
-0.357142865657806396 -0.19140625 0.27734375
-0.267857134342193604 -0.03515625 0.078125
0.571428596973419189 -0.22265625 -0.2109375
-0.232142850756645203 0.05859375 -0.04296875
-0.357142865657806396 -0.19921875 0.31640625
-0.3125 -0.140624985098838806 0.21484375
-0.294642865657806396 -0.1015625 0.13671875
-0.195314645767211914 -0.0859375074505805969 -0.291660994291305542
0.0714285746216773987 -0.222656220197677612 -0.37109375
0.107142865657806396 -0.22265625 -0.374218761920928955
-0.321428567171096802 -0.09765625 0.17578125
-0.366071432828903198 -0.19921875 0.32421875
-0.232142850756645203 -0.000651041686069220304 -0.195963546633720398
-0.357142865657806396 -0.18359375 0.2734375
-0.339285701513290405 -0.15234375 0.226562514901161194
-0.339285701513290405 -0.171874985098838806 0.24609375
-0.339285701513290405 -0.16796875 0.23828125
0.446428567171096802 -0.2421875 -0.316406190395355225
-0.116071432828903198 0.23828125 0.0898437574505805969
0.571428596973419189 -0.16796875 -0.16796875
0.491071432828903198 -0.25 -0.265625029802322388
0.508928537368774414 -0.2421875 -0.226562485098838806
-0.0892857164144515991 0.1875 0.0234375018626451492
-0.178571447730064392 -0.09765625 -0.273437470197677612
0.392857134342193604 -0.265625029802322388 -0.3369140625
0.232142850756645203 -0.243489563465118408 -0.374999940395355225
-0.0892857089638710022 -0.23046875 -0.351562589406967163
-0.294642865657806396 -0.0937499925494194031 0.109375007450580597
-0.205357149243354797 0.0937499850988388062 -0.078125
-0.1875 0.0794270783662796021 -0.09765625
-0.232142850756645203 0.05859375 -0.0234374981373548508
-0.196428567171096802 -0.0390625 -0.25390625
-0.223214283585548401 0.16796875 0.125
0.544642865657806396 -0.234375014901161194 -0.1953125
0.544642746448516846 -0.21875 -0.18359375
-0.25 0.0390625 0.02734375
-0.205357149243354797 -0.109375 -0.30078125
0.125 -0.25 -0.375
-0.223214283585548401 0.16015625 0.14453125
-0.142857149243354797 0.23828125 0.12890625
0.25 -0.23828125 -0.3671875
-0.196428567171096802 0.0773432403802871704 -0.114840790629386902
-0.142857149243354797 0.10546875 -0.05078125
-0.357142865657806396 -0.18359375 0.2890625
0.125 -0.24609375 -0.36328125
-0.357142865657806396 -0.19140625 0.296875
-0.366071432828903198 -0.19140625 0.31640625
0.5625 -0.16796875 -0.16796875
-0.357142865657806396 -0.18359375 0.2734375
-0.133928582072257996 0.238281235098838806 0.109375
0.446428567171096802 -0.238281264901161194 -0.29296875
-0.285714298486709595 -0.071614585816860199 0.104166664183139801
-0.25 0.0468750074505805969 0.01171875
-0.187499985098838806 -0.0703125 -0.2734375
-0.330357134342193604 -0.144531264901161194 0.2265625
0.544642925262451172 -0.1953125 -0.16796875
0.535714328289031982 -0.2109375 -0.203125
-0.294642865657806396 -0.08203125 0.12109375
0.580357193946838379 -0.183593779802322388 -0.18359375
0.383928567171096802 -0.269531190395355225 -0.34375
0.241071432828903198 -0.234375 -0.363281279802322388
-0.383928567171096802 -0.22265625 0.339843779802322388
-0.267857134342193604 -0.0507812574505805969 0.08203125
0.57142871618270874 -0.1953125 -0.1953125
-0.0625 -0.21875 -0.374999970197677612
-0.214285716414451599 -0.0390625 -0.22265625
-0.116071425378322601 0.230468720197677612 0.0742188692092895508
0.0982142835855484009 -0.2421875 -0.3671875
0.392857134342193604 -0.265625 -0.30859375
0.1875 -0.2578125 -0.36328125
-0.357142895460128784 -0.1953125 0.3125
-0.303571432828903198 -0.1015625 0.160156235098838806
-0.142857149243354797 0.125 -0.05078125
0.357163161039352417 -0.265632569789886475 -0.371862858533859253
0.455357074737548828 -0.23828125 -0.30859375
0.589285731315612793 -0.1181640625 -0.125
-0.1875 0.17578125 0.09375
-0.232142850756645203 0.05859375 -0.06640625
0.598214328289031982 -0.152343720197677612 -0.113281257450580597
0.303571462631225586 -0.257812470197677612 -0.33984375
-0.160714283585548401 0.179687485098838806 0.0703124925494194031
-0.267857104539871216 -0.01171875 0.0625
-0.267857134342193604 0.03125 0.0390625
-0.223214283585548401 0.167968735098838806 0.1328125
-0.375 -0.234375 0.3359375
-0.125 0.17578125 0.0390625
-0.357142835855484009 -0.1953125 0.3046875
-0.1875 0.0976563096046447754 -0.078125
0.535714268684387207 -0.21484375 -0.1953125
0.0535714291036128998 -0.21875 -0.3828125
0.00892857182770967484 -0.22265625 -0.390625
-0.125 0.23828125 0.08203125
0.535714268684387207 -0.234375 -0.195312514901161194
-0.151785716414451599 0.1796875 0.0664062574505805969
-0.214285716414451599 0.171874985098838806 0.11328125
0.0357142873108386993 -0.23046875 -0.3671875
0.5 -0.25 -0.2734375
-0.088545382022857666 0.153675451874732971 -0.000749265134800225496
0.223214268684387207 -0.26171875 -0.36328125
0.142857149243354797 -0.24609375 -0.3828125
-0.357142865657806396 -0.203125 0.320312529802322388
-0.0803571417927742004 -0.23828125 -0.3671875
-0.303571462631225586 -0.109375007450580597 0.191406235098838806
0.419642865657806396 -0.2578125 -0.339843720197677612
-0.223214283585548401 -0.07421875 -0.24609375
0.0982142835855484009 -0.24609375 -0.375
-0.160714268684387207 0.0898437649011611938 -0.06640625
-0.303571432828903198 -0.08984375 0.1484375
-0.357142865657806396 -0.19140625 0.28125
-0.366071432828903198 -0.19140625 0.296875
0.232142850756645203 -0.2578125 -0.3515625
-0.0803571417927742004 0.1953125 0.02734375
0.0982142835855484009 -0.234375 -0.3671875
0.223218247294425964 -0.2421875 -0.35546875
-0.205357149243354797 0.01953125 -0.1875
-0.151785716414451599 -0.1953125 -0.3515625
-0.330357134342193604 -0.15625 0.2265625
-0.321428537368774414 -0.113281264901161194 0.203125
0.553571403026580811 -0.207031264901161194 -0.16796875
0.285714298486709595 -0.253906279802322388 -0.3671875
-0.25 -0.0390625037252902985 0.08203125
-0.169642850756645203 0.1796875 0.0703125
0.0982142835855484009 -0.23828125 -0.390625
-0.3125 -0.10546875 0.175781279802322388
0.169642850756645203 -0.234375 -0.359374940395355225
0.25 -0.26171875 -0.359375
0.571428596973419189 -0.11328125 -0.1328125
-0.375 -0.23828125 0.3359375
-0.357142865657806396 -0.19921875 0.3125
-0.107142843306064606 0.136718764901161194 -0.046875
-0.330357134342193604 -0.121093757450580597 0.21484375
0.0446428582072257996 -0.218750029802322388 -0.38671875
0.589285731315612793 -0.195312514901161194 -0.169270828366279602
-0.169642850756645203 0.183593779802322388 0.08203125
0.0267857164144515991 -0.23828125 -0.37109375
0.044642861932516098 -0.218750014901161194 -0.371093779802322388
-0.0972060486674308777 0.17578125 -2.2132129299818476e-13
0.553571462631225586 -0.2421875 -0.20703125
-0.142857149243354797 0.17578125 0.05859375
-0.125 0.1328125 -0.03515625
-0.196428567171096802 0.06640625 -0.08984375
-0.151785731315612793 0.2421875 0.1328125
-0.160714298486709595 -0.183593764901161194 -0.33984375
0.580357134342193604 -0.125 -0.113281257450580597
0.517857074737548828 -0.25390625 -0.26953125
-0.142857164144515991 0.105468742549419403 -0.05078125
-0.0892857164144515991 0.203125 0.04296875
-0.116071425378322601 0.1171875 -0.05078125
-0.1875 0.1796875 0.08984375
-0.25 0.0390625 0.02734375
0.0625 -0.24609375 -0.375
-0.151785746216773987 -0.183593735098838806 -0.3515625
-0.3125 -0.109375 0.1640625
-0.205357149243354797 0.0625 -0.08203125
-0.241071432828903198 0.0390625 -0.01171875
0.446428567171096802 -0.23828125 -0.289062529802322388
-0.169642850756645203 -0.140625029802322388 -0.332031279802322388
0.107142865657806396 -0.238281264901161194 -0.3671875
0.482142865657806396 -0.23046875 -0.265625029802322388
0.5625 -0.19921875 -0.15625
0.508928596973419189 -0.2578125 -0.25
0.598214268684387207 -0.1875 -0.164062485098838806
0.214285716414451599 -0.23046875 -0.36328125
-0.294642865657806396 -0.09765625 0.12109375
-0.303571432828903198 -0.117187507450580597 0.210937514901161194
-0.205357149243354797 0.1796875 0.10546875
0.1071428582072258 -0.246093735098838806 -0.38671875
-0.169642850756645203 0.10546875 -0.0625
-0.205357149243354797 0.0546875 -0.15234375
-0.223214283585548401 0.0703125074505805969 -0.06640625
-0.133928567171096802 0.17578125 0.0468749925494194031
0.553571403026580811 -0.23046875 -0.23046875
0.571428537368774414 -0.233072921633720398 -0.203125014901161194
0.348214298486709595 -0.25 -0.3515625
0.553571343421936035 -0.2421875 -0.242187470197677612
0.517857074737548828 -0.23046875 -0.21875
0.232142850756645203 -0.25 -0.3515625
-0.223214283585548401 -0.00878906343132257462 -0.1845703125
-0.0178571436554193497 -0.25 -0.36328125
-0.160714268684387207 0.09375 -0.0625
0.544642925262451172 -0.25 -0.21875
-0.3125 -0.1328125 0.21875
-0.125 0.11328125 -0.046875
0.2322654128074646 -0.25390625 -0.37890625
-0.232142850756645203 0.05859375 -0.0234375
-0.366071462631225586 -0.2421875 0.34765625
0.375 -0.2578125 -0.31640625
-0.214285716414451599 0.0078125 -0.20703125
-0.125 0.1796875 0.0390625
0.151785731315612793 -0.2265625 -0.37890625
-0.142857149243354797 0.24609375 0.12109375
-0.196428552269935608 0.0104166660457849503 -0.187499985098838806
0.508928537368774414 -0.239257827401161194 -0.242187485098838806
0.116071425378322601 -0.234375014901161194 -0.3671875
0.330357134342193604 -0.26171875 -0.3515625
-0.294642865657806396 -0.08984375 0.140625
0.535714328289031982 -0.19921875 -0.177083328366279602
-0.357142865657806396 -0.19140625 0.30078125
0.508928596973419189 -0.25390625 -0.257812529802322388
-0.321428567171096802 -0.1328125 0.2265625
-0.303571432828903198 -0.109374992549419403 0.15625
-0.133928567171096802 0.171875 0.0390625
-0.375 -0.21875 0.33203125
0.571428596973419189 -0.15234375 -0.1171875
0.607142865657806396 -0.145507827401161194 -0.13671875
-0.267857134342193604 0.03515625 0.0195312518626451492
0.508928596973419189 -0.234375 -0.26171875
-0.375 -0.2421875 0.34765625
0.0982142612338066101 -0.22265625 -0.3828125
-0.383928567171096802 -0.22265625 0.33984375
-0.214285716414451599 0.03125 -0.13671875
0.5625 -0.148437485098838806 -0.1328125
-0.267857164144515991 -0.07421875 0.0937499925494194031
-0.142857149243354797 0.1796875 0.05859375
-0.1875 0.17578125 0.09375
-0.089285723865032196 0.140624985098838806 -0.0351562574505805969
-0.178571432828903198 0.234375 0.17578125
-0.223214283585548401 0.0664062649011611938 -0.0625
0.169642850756645203 -0.2421875 -0.3828125
-0.294642835855484009 -0.1015625 0.124999985098838806
-0.214285701513290405 0.05859375 -0.0833333283662796021
0.401785731315612793 -0.265625 -0.32421875
0.589285731315612793 -0.16796875 -0.1640625
-0.169642850756645203 0.17578125 0.0742187574505805969
-0.169642850756645203 0.0820312649011611938 -0.084635414183139801
-0.169642865657806396 0.101562492549419403 -0.0820312574505805969
-0.178571432828903198 -0.160156235098838806 -0.324218779802322388
-0.312499970197677612 -0.11328125 0.19140625
0.517857134342193604 -0.234375 -0.234375
-0.1875 0.175781264901161194 0.0859375
0.473214268684387207 -0.23828125 -0.3046875
-0.160714283585548401 -0.137695282697677612 -0.325195282697677612
0.348214298486709595 -0.260416656732559204 -0.35546875
0.160714283585548401 -0.25 -0.36328125
-0.205357149243354797 -0.0664062425494194031 -0.24609375
0.5 -0.25 -0.2890625
-0.142857149243354797 0.09765625 -0.06640625
0.544642806053161621 -0.1953125 -0.191406235098838806
0.482142865657806396 -0.25390625 -0.28125
-0.214285701513290405 0.171874985098838806 0.11328125
-0.151785716414451599 0.234375 0.14453125
0.0357142873108386993 -0.23046875 -0.3671875
-0.160714283585548401 0.11328125 -0.06640625
-0.160714283585548401 -0.1796875 -0.3359375
-0.223214283585548401 0.03125 -0.1796875
0.47321435809135437 -0.2578125 -0.290364563465118408
0.5 -0.236979156732559204 -0.2890625
0.491071432828903198 -0.2421875 -0.30078125
-0.107142850756645203 0.121093742549419403 -0.04296875
-0.357142865657806396 -0.17578125 0.2421875
-0.125 0.1328125 -0.03515625
-0.357142865657806396 -0.1875 0.2578125
-0.160714283585548401 0.0703125 -0.078125
0.0714285746216773987 -0.23046875 -0.39453125
-0.178571432828903198 -0.1640625 -0.3359375
-0.232142865657806396 0.078125 -0.0937500074505805969
-0.133928567171096802 0.2421875 0.09765625
0.205357149243354797 -0.23828125 -0.359375
-0.205357149243354797 0.01171875 -0.1640625
-0.339285701513290405 -0.17578125 0.25
-0.1071428582072258 0.203125 0.0351562462747097015
-0.232142850756645203 0.05859375 -0.0429687462747097015
0.571428596973419189 -0.2421875 -0.213867202401161194
0.383928567171096802 -0.25 -0.343749970197677612
0.160714283585548401 -0.23046875 -0.3671875
-0.116071425378322601 -0.191406235098838806 -0.355468779802322388
0.526785612106323242 -0.265625 -0.25390625
-0.0178571436554193497 -0.25390625 -0.3671875
-0.125 0.171875 0.03515625
-0.0357142873108386993 -0.234374985098838806 -0.359375
0.151785701513290405 -0.24609375 -0.359375
-0.366071432828903198 -0.1875 0.28515625
-0.232142835855484009 0.0546874962747097015 -0.0234375
0.508928537368774414 -0.25390625 -0.252604156732559204
0.357142835855484009 -0.270862281322479248 -0.3828125
-0.133928552269935608 0.10546875 -0.06640625
-0.258928596973419189 -0.05859375 0.08203125
-0.258928567171096802 0.01953125 0.03515625
0.205357179045677185 -0.242187514901161194 -0.35546875
-0.0982142835855484009 0.21484375 0.0585937462747097015
0.133928582072257996 -0.23046875 -0.38671875
-0.0178571436554193497 -0.234375 -0.359375
0.544642865657806396 -0.20703125 -0.171875
0.553571403026580811 -0.1953125 -0.15625
-0.0982142835855484009 -0.2109375 -0.37109375
-0.196428567171096802 -0.015625 -0.20703125
0.580357134342193604 -0.206054657697677612 -0.1845703125
0.446428567171096802 -0.265625029802322388 -0.296875
-0.3125 -0.140625 0.218749970197677612
-0.357142865657806396 -0.179687485098838806 0.25390625
0.125 -0.24609375 -0.36328125
-0.196428567171096802 0.0742120146751403809 -0.121099300682544708
-0.232142850756645203 0.0654296875 -0.122070319950580597
0.571428596973419189 -0.175781264901161194 -0.1796875
-0.25 0.0468750037252902985 -0.01953125
-0.196428567171096802 0.0546874962747097015 -0.12109375
-0.133928567171096802 0.2421875 0.12109375
0.526785731315612793 -0.23828125 -0.20703125
-0.178571447730064392 0.095052085816860199 -0.0859375
-0.303571373224258423 -0.10546875 0.13671875
-0.339285701513290405 -0.18359375 0.25390625
-0.0535714291036128998 -0.23046875 -0.37890625
-0.107549823820590973 0.132426977157592773 -0.0218356046825647354
-0.241071432828903198 0.04296875 -0.03125
0.464285701513290405 -0.23828125 -0.273437529802322388
-0.383928567171096802 -0.2265625 0.3359375
0.160714298486709595 -0.25390625 -0.375
0.142857149243354797 -0.24609375 -0.36328125
0.535714268684387207 -0.222656264901161194 -0.226562514901161194
-0.241071462631225586 0.0390625 -0.01171875
-0.267857134342193604 0.0234374981373548508 0.0312499962747097015
-0.348214298486709595 -0.16796875 0.2421875
-0.366071432828903198 -0.1875 0.27734375
-0.214285731315612793 -0.0390625 -0.25390625
-0.133928567171096802 0.2421875 0.09765625
-0.169642850756645203 0.109375 -0.06640625
-0.214285716414451599 0.0585937462747097015 -0.1484375
-0.366071432828903198 -0.22265625 0.328125
0.0535714291036128998 -0.234375 -0.390625
0.0267857145518064499 -0.23828125 -0.37109375
-0.267857134342193604 -0.0585937537252902985 0.08203125
-0.196428567171096802 -0.0208333339542150497 -0.239583343267440796
-0.214285716414451599 0.16015625 0.13671875
0.482142865657806396 -0.23828125 -0.300781279802322388
0.571428596973419189 -0.1640625 -0.128906235098838806
-0.142827987670898438 -0.183593764901161194 -0.328125
-0.151785731315612793 0.0937500074505805969 -0.07421875
0.169642865657806396 -0.2421875 -0.359375029802322388
0.0446428582072257996 -0.22265625 -0.39453125
-0.142857149243354797 0.183593720197677612 0.0585937350988388062
-0.151785701513290405 -0.1455078125 -0.3154296875
-0.232142850756645203 0.0429687537252902985 -0.015625
0.544642806053161621 -0.183593735098838806 -0.170572921633720398
0.258928567171096802 -0.2578125 -0.37109375
0.598214268684387207 -0.15625 -0.140625
-0.205357149243354797 0.1796875 0.10546875
-0.25 0.05078125 -0.00390625
-0.125 0.121093742549419403 -0.0390625
-0.223214283585548401 0.156250014901161194 0.136718764901161194
-0.223214268684387207 0.0390625 -0.1328125
-0.00892857275903224945 -0.234375 -0.36328125
-0.366071432828903198 -0.2109375 0.324218779802322388
-0.169642820954322815 -0.1015625 -0.28515625
0.196428567171096802 -0.26171875 -0.3671875
0.428571432828903198 -0.25 -0.324218779802322388
-0.116071425378322601 0.23828125 0.078125
-0.0446428582072257996 -0.22265625 -0.375
0.526785731315612793 -0.23046875 -0.23828125
0.357142865657806396 -0.261718779802322388 -0.34765625
-0.366071432828903198 -0.195312485098838806 0.316406190395355225
-0.125 0.1484375 0.01953125
-0.160714283585548401 0.11328125 -0.06640625
-0.250000029802322388 -0.015625 0.07421875
-0.196428537368774414 0.0546875 -0.142187505960464478
0.437500029802322388 -0.24609375 -0.289062559604644775
-0.169642850756645203 0.1796875 0.0703125
0.571428656578063965 -0.21875 -0.2109375
-0.357142865657806396 -0.199218735098838806 0.316406279802322388
-0.116071425378322601 0.171875 0.015625
0.375 -0.256835967302322388 -0.351562559604644775
0.535714268684387207 -0.2578125 -0.25
0.607142865657806396 -0.152342632412910461 -0.12109559029340744
-0.375 -0.226562485098838806 0.33984375
-0.142857149243354797 -0.19921875 -0.35546875
-0.366071432828903198 -0.2265625 0.3359375
-0.169642850756645203 0.17578125 0.07421875
-0.196428582072257996 -0.015625 -0.234375014901161194
-0.258928567171096802 0.0234375 0.05859375
0.267857134342193604 -0.26171875 -0.35546875
0.151785716414451599 -0.23046875 -0.36328125
-0.25 0.0429687537252902985 -0.01953125
0.00892857182770967484 -0.23828125 -0.37109375
-0.375 -0.23828125 0.347656220197677612
0.133928567171096802 -0.2265625 -0.375
0.589285731315612793 -0.167968764901161194 -0.1328125
-0.205357149243354797 -0.02734375 -0.246093735098838806
-0.205357149243354797 -0.0703125 -0.27734375
0.419642835855484009 -0.2607421875 -0.332031220197677612
-0.160714283585548401 0.23828125 0.1640625
-0.357142865657806396 -0.19140625 0.28125
0.553571403026580811 -0.246093735098838806 -0.230468735098838806
0.107142843306064606 -0.2421875 -0.38671875
-0.303571432828903198 -0.1015625 0.183593779802322388
-0.267857134342193604 0.01953125 0.04296875
0.508928537368774414 -0.24609375 -0.238281264901161194
-0.116071425378322601 0.117187492549419403 -0.046875
0.0803571417927742004 -0.23828125 -0.3671875
-0.142857134342193604 -0.1796875 -0.351562470197677612
-0.169642552733421326 0.17578125 0.0703125
0.196428552269935608 -0.257812470197677612 -0.371093809604644775
-0.133928626775741577 -0.16796875 -0.33203125
-0.205357134342193604 0.0429687537252902985 -0.130208343267440796
0.232142850756645203 -0.26171875 -0.355468779802322388
0.1071428582072258 -0.2265625 -0.38671875
0.098214276134967804 -0.23828125 -0.390625
-0.133928552269935608 0.24609375 0.109375007450580597
0.196428582072257996 -0.26171875 -0.3671875
-0.303571403026580811 -0.113281257450580597 0.1875
-0.339285701513290405 -0.171875 0.234375
-0.196428567171096802 -0.0273437481373548508 -0.24609375
-0.366071403026580811 -0.1875 0.269531190395355225
-0.375 -0.2265625 0.33203125
-0.0357142873108386993 -0.2265625 -0.36328125
-0.267857164144515991 0.01953125 0.04296875
-0.1875 0.09765625 -0.06640625
0.598214268684387207 -0.14453125 -0.1015625
-0.205357149243354797 0.171875 0.10546875
0.285714298486709595 -0.26171875 -0.359375
-0.366071432828903198 -0.19140625 0.296875
-0.366071432828903198 -0.2421875 0.34375
-0.196428567171096802 0.0205500107258558273 -0.169050723314285278
-0.160714283585548401 0.09375 -0.08203125
-0.151785716414451599 0.2421875 0.121093742549419403
0.589285850524902344 -0.136718705296516418 -0.136718720197677612
0.491071462631225586 -0.24609375 -0.26171875
-0.0982142910361289978 0.18359375 0.0234375018626451492
-0.3125 -0.10546875 0.16015625
0.0714285746216773987 -0.24609375 -0.375
0.0803571417927742004 -0.2265625 -0.3671875
0.544642865657806396 -0.19140625 -0.171874985098838806
-0.3125 -0.1328125 0.218749985098838806
0.357142865657806396 -0.248697906732559204 -0.354166656732559204
0.142857164144515991 -0.231770843267440796 -0.36328125
-0.169642850756645203 -0.1484375 -0.3359375
-0.196428567171096802 0.1796875 0.1015625
0.50892871618270874 -0.234375014901161194 -0.25390625
0.223214283585548401 -0.234375 -0.36328125
-0.205357149243354797 0.0585937537252902985 -0.101562492549419403
-0.375 -0.2265625 0.34375
-0.339285701513290405 -0.17578125 0.24609375
-0.1071428582072258 0.22265625 0.0546874962747097015
-0.258928567171096802 0.04296875 0.015625
0.0714285746216773987 -0.22265625 -0.390625
-0.169642865657806396 0.230468779802322388 0.16796875
-0.142857149243354797 0.18359375 0.0585937947034835815
0.535714268684387207 -0.22265625 -0.19140625
-0.1875 -0.12109375 -0.289062470197677612
-0.196428567171096802 -0.1328125 -0.30078125
-0.3125 -0.09375 0.1640625
-0.357142865657806396 -0.18359375 0.26171875
-0.366071432828903198 -0.18359375 0.296875
-0.196428567171096802 -0.0664062425494194031 -0.246093764901161194
-0.196428567171096802 -0.09375 -0.269531279802322388
0.455357104539871216 -0.234375 -0.296875
0.598214268684387207 -0.1796875 -0.1640625
-0.133928567171096802 -0.18359375 -0.35546875
-0.214285716414451599 0.171875 0.12109375
0.544642865657806396 -0.191406235098838806 -0.16796875
-0.223214298486709595 0.0498046875 -0.0166015625
0.517857193946838379 -0.265625 -0.26171875
-0.258928567171096802 -0.03125 0.0703124925494194031
-0.169642865657806396 -0.1669921875 -0.343749970197677612
0.401785671710968018 -0.24609375 -0.324218720197677612
0.241071432828903198 -0.25 -0.34765625
-0.0982142835855484009 0.1328125 -0.02734375
-0.258928567171096802 -2.10485253358816404e-12 0.0546875
0.214285716414451599 -0.234375 -0.35546875
-0.196428552269935608 -0.015625 -0.203125
0.580357193946838379 -0.218750014901161194 -0.203124985098838806
-0.285714328289031982 -0.0859374925494194031 0.09765625
0.446428567171096802 -0.25390625 -0.28515625
-0.151785716414451599 0.18359375 0.05859375
-0.160714283585548401 0.183593764901161194 0.0664062425494194031
-0.267857134342193604 0.03515625 0.01953125
-0.116071425378322601 -0.19921875 -0.36328125
-0.312500029802322388 -0.117187492549419403 0.195312514901161194
-0.133928567171096802 0.1328125 -0.04296875
-0.0803571417927742004 -0.234375029802322388 -0.37109375
-0.366071403026580811 -0.191406235098838806 0.3125
-0.1071428582072258 0.17578125 0.02734375
-0.1071428582072258 0.148437514901161194 0.01171875
0.321428567171096802 -0.25 -0.359375
-0.187499985098838806 -0.0148437488824129105 -0.213281244039535522
-0.25 0.046875 0.015625
-0.116071425378322601 0.152343735098838806 -0.0078125
-0.214285731315612793 0.0617187544703483582 -0.0640624985098838806
-0.232142850756645203 -0.06640625 -0.2421875
0.607142925262451172 -0.16015625 -0.1328125
0.258928567171096802 -0.26171875 -0.34375
-0.223214283585548401 0.0625000074505805969 -0.04296875
-0.142857164144515991 0.24609375 0.12890625
-0.366071403026580811 -0.222656235098838806 0.3359375
-0.366071432828903198 -0.21875 0.328124940395355225
-0.196428567171096802 0.01171875 -0.171875014901161194
-0.339285701513290405 -0.16796875 0.23828125
-0.116071425378322601 0.13671875 -0.0507812537252902985
0.0446428582072257996 -0.214843764901161194 -0.3828125
0.25 -0.242187485098838806 -0.375
-0.224109873175621033 0.0780782327055931091 -0.11699986457824707
-0.116071425378322601 0.1171875 -0.046875
0.375 -0.26171875 -0.363281279802322388
0.428571492433547974 -0.261718779802322388 -0.324218779802322388
-0.0625 -0.234375 -0.35546875
-0.0803571417927742004 0.1953125 0.0273437481373548508
-0.357142865657806396 -0.1953125 0.3125
0.232416480779647827 -0.25390625 -0.37890625
-0.178571432828903198 0.2265625 0.171875014901161194
-0.169642850756645203 0.18359375 0.06640625
-0.133928537368774414 0.238281235098838806 0.10546875
-0.375 -0.2421875 0.347656279802322388
0.455357164144515991 -0.242187485098838806 -0.3125
-0.0981915071606636047 0.163475185632705688 0.015625
-0.366071432828903198 -0.238281264901161194 0.339843779802322388
0.580357193946838379 -0.21875 -0.19140625
-0.267857134342193604 -0.0751953274011611938 0.1015625
-0.0803571417927742004 -0.20703125 -0.359375
-0.366071462631225586 -0.1953125 0.31640625
-0.160714283585548401 0.23828125 0.13671875
0.571428596973419189 -0.22265625 -0.2109375
-0.294642865657806396 -0.08984375 0.140625
-0.366071462631225586 -0.22265625 0.328125
-0.0267857145518064499 -0.25 -0.37890625
0.464285701513290405 -0.238281279802322388 -0.3046875
0.223214268684387207 -0.25390625 -0.375
-0.160714298486709595 0.23046875 0.15625
-0.125 -0.179687514901161194 -0.34375
-0.169642850756645203 0.1796875 0.0703125
-0.169642850756645203 0.23046875 0.171875
-0.223214283585548401 -0.0205078125 -0.2099609375
-0.160714283585548401 0.23046875 0.15625
-0.258928567171096802 0.04296875 0.02734375
-0.267857134342193604 0.02734375 0.04296875
0.508928477764129639 -0.2666015625 -0.25390625
-0.375 -0.22265625 0.33984375
-0.321428596973419189 -0.09765625 0.17578125
-0.267857134342193604 -0.00390625046566128731 0.0703124925494194031
0.428571373224258423 -0.265625 -0.3046875
-0.223214283585548401 0.167968779802322388 0.125
-0.0982142835855484009 0.226562514901161194 0.05859375
-0.00892857182770967484 -0.23828125 -0.3828125
-0.312499970197677612 -0.109375 0.18359375
0.4375 -0.2578125 -0.3203125
-0.196428567171096802 -0.05078125 -0.265625
0.544642806053161621 -0.25390625 -0.23046875
-0.3125 -0.13671875 0.2265625
-0.214285716414451599 0.0078125 -0.207031235098838806
-0.223214283585548401 -0.07421875 -0.265625
-0.25 0.0078125 0.05859375
0.544642865657806396 -0.2578125 -0.246093764901161194
-0.1071428582072258 0.171875 -4.82889891809980265e-14
-0.383928567171096802 -0.22265625 0.339843779802322388
-0.142857134342193604 0.125 -0.05078125
0.464285701513290405 -0.23046875 -0.2734375
-0.223214283585548401 -0.0111315390095114708 -0.21863943338394165
-0.124999992549419403 0.2421875 0.09375
-0.20535711944103241 -0.1015625 -0.296875
-0.116071425378322601 -0.22265625 -0.3671875
-0.142857149243354797 -0.171875 -0.3515625
-0.1875 0.17578125 0.0859375
-0.0982142835855484009 0.22265625 0.06640625
-0.125 -0.1787109375 -0.339843720197677612
0.4375 -0.2421875 -0.31640625
0.0803571417927742004 -0.2265625 -0.39453125
0.598214268684387207 -0.167968735098838806 -0.15234375
0.392857134342193604 -0.24609375 -0.335156261920928955
0.0535714291036128998 -0.24609375 -0.38671875
0.5625 -0.16015625 -0.13671875
-0.357142865657806396 -0.18359375 0.28125
0.383928567171096802 -0.26171875 -0.351562470197677612
-0.366071432828903198 -0.2265625 0.3359375
-0.133928567171096802 -0.171875 -0.328125
0.366071432828903198 -0.26953125 -0.37109375
0.0625 -0.222656235098838806 -0.390625
0.562499880790710449 -0.128906264901161194 -0.1220703125
-0.169642850756645203 0.179687514901161194 0.07421875
-0.205357164144515991 -0.04296875 -0.222656264901161194
-0.366071432828903198 -0.2265625 0.3359375
-0.142857164144515991 0.25 0.12109375
-0.267857134342193604 -0.0390625 0.0859374925494194031
0.437499970197677612 -0.242187514901161194 -0.31640625
-0.00892857182770967484 -0.23046875 -0.3828125
-0.205357149243354797 -0.03125 -0.210937425494194031
-0.1875 -0.11328125 -0.28125
0.357142865657806396 -0.24609375 -0.3359375
-0.374999970197677612 -0.2265625 0.34375
-0.106413461267948151 0.142458289861679077 -0.00477451086044311523
-0.1071428582072258 0.144531264901161194 -0.0078125
0.241071417927742004 -0.26171875 -0.367187529802322388
-0.160714283585548401 0.18359375 0.06640625
-0.1875 -0.06640625 -0.257812529802322388
0.410714298486709595 -0.2578125 -0.3388671875
-0.214285716414451599 0.0546875 -0.05859375
-0.348214268684387207 -0.1640625 0.234375
-0.303571432828903198 -0.11328125 0.203125
-0.169642850756645203 -0.148437485098838806 -0.30859375
-0.214285716414451599 -0.0585937462747097015 -0.25390625
-0.107142850756645203 0.23828125 0.08203125
0.151785671710968018 -0.23828125 -0.359375
-0.160714298486709595 -0.167968764901161194 -0.3203125
0.544642925262451172 -0.194010421633720398 -0.183593735098838806
0.553571462631225586 -0.233593747019767761 -0.234374985098838806
0.589285731315612793 -0.125 -0.11328125
-0.205357164144515991 -0.0351562574505805969 -0.222656264901161194
-0.0714285820722579956 -0.23046875 -0.37890625
-0.267857134342193604 0.01953125 0.04296875
-0.125 -0.20703125 -0.36328125
0.0714285746216773987 -0.22265625 -0.390625
0.258928567171096802 -0.23828125 -0.36328125
0.446428567171096802 -0.23828125 -0.2890625
-0.214285761117935181 -0.0781250074505805969 -0.261718660593032837
0.589285790920257568 -0.117187507450580597 -0.128906264901161194
-0.151785731315612793 -0.152580752968788147 -0.335937470197677612
0.0357142835855484009 -0.21484375 -0.375000029802322388
-0.1875 -0.04296875 -0.2578125
-0.357142865657806396 -0.18359375 0.261718720197677612
0.0178571455180644989 -0.2109375 -0.382812470197677612
0.544642865657806396 -0.22265625 -0.2265625
-0.375 -0.23828125 0.34765625
0.4375 -0.265625 -0.3046875
0.508928537368774414 -0.265624970197677612 -0.2421875
0.348214298486709595 -0.25 -0.34375
-0.220238104462623596 0.0572916679084300995 -0.0742187574505805969
-0.303571432828903198 -0.0945312455296516418 0.160937488079071045
-0.366071432828903198 -0.18359375 0.28515625
0.446428567171096802 -0.257812529802322388 -0.31640625
-0.357142895460128784 -0.1953125 0.3046875
-0.25 -0.03515625 0.07421875
-0.1875 0.17578125 0.09375
-0.178571432828903198 -0.0898437574505805969 -0.289062529802322388
-0.267857134342193604 -0.0078125 0.0742187574505805969
-0.125 -0.203125 -0.3671875
-0.366071432828903198 -0.218750014901161194 0.328125
0.0625 -0.2421875 -0.37109375
0.464285701513290405 -0.2578125 -0.28515625
-0.357142865657806396 -0.19140625 0.281250029802322388
-0.142857149243354797 0.2421875 0.1328125
-0.348214268684387207 -0.19140625 0.257812559604644775
0.544642865657806396 -0.20703125 -0.17578125
0.428571432828903198 -0.264648407697677612 -0.2890625
-0.232142850756645203 0.0703125 -0.0742187574505805969
-0.196428567171096802 0.171875 0.09375
-0.25 0.0351562462747097015 -0.00390625
-0.258928567171096802 -0.0234374981373548508 0.0820312350988388062
-0.116071425378322601 0.13671875 -0.05078125
-0.258928567171096802 -0.046875 0.0820312425494194031
-0.0892857164144515991 0.20703125 0.046875
-0.232142865657806396 0.046875 -0.0156249990686774254
0.151785627007484436 -0.23828125 -0.359375
0.0803571492433547974 -0.238281264901161194 -0.39453125
-0.107142873108386993 0.234374970197677612 0.06640625
-0.330357134342193604 -0.1640625 0.2265625
0.258928567171096802 -0.2421875 -0.367187529802322388
-0.0357142873108386993 -0.2265625 -0.36328125
0.205357149243354797 -0.234375 -0.375000029802322388
-0.330357134342193604 -0.1171875 0.214843720197677612
0.196428567171096802 -0.234375 -0.36328125
0.0446428582072257996 -0.21875 -0.38671875
-0.0982142835855484009 0.157244816422462463 0.000956871546804904938
-0.267857074737548828 0.0078125 0.06640625
-0.0803571417927742004 -0.2109375 -0.367187529802322388
-0.3125 -0.09375 0.1640625
-0.0803571417927742004 -0.234375 -0.37109375
0.571428596973419189 -0.195312529802322388 -0.152343764901161194
0.285714298486709595 -0.25 -0.343749970197677612
-0.232142835855484009 0.0742187649011611938 -0.087239585816860199
0.0803571417927742004 -0.2421875 -0.371093720197677612
0.133928582072257996 -0.25 -0.367187529802322388
-0.0267857145518064499 -0.25 -0.37109375
0.0714285746216773987 -0.24609375 -0.38671875
-0.366071432828903198 -0.1875 0.2890625
-0.125 -0.1875 -0.333333343267440796
-0.357142865657806396 -0.1875 0.30078125
0.214285701513290405 -0.2421875 -0.382812529802322388
-0.357142865657806396 -0.1875 0.30078125
-0.160714268684387207 -0.18359375 -0.347656309604644775
-0.160714283585548401 -0.144159615039825439 -0.307783961296081543
-0.366071432828903198 -0.1953125 0.3203125
-0.116071425378322601 0.136718720197677612 -0.0507812537252902985
-0.357142865657806396 -0.18359375 0.2890625
-0.205357149243354797 0.0117187490686774254 -0.16796875
-0.196428552269935608 0.0849609151482582092 -0.102539107203483582
0.0892857164144515991 -0.238281235098838806 -0.390625
-0.0357142873108386993 -0.234375 -0.359375
-0.241071432828903198 0.0625 -0.0351562462747097015
-0.178571432828903198 0.18359375 0.0859375
0.464285701513290405 -0.2421875 -0.27734375
-0.366071432828903198 -0.23828125 0.33984375
-0.383928567171096802 -0.2265625 0.3359375
-0.160714283585548401 0.23828125 0.1640625
-0.0803571417927742004 0.19140625 0.0195312518626451492
-0.258928567171096802 0.0390625 0.0312500037252902985
-0.223214283585548401 0.01953125 -0.156250014901161194
0.0714285746216773987 -0.23828125 -0.39453125
-0.366071432828903198 -0.1953125 0.3125
-0.151785716414451599 0.109375 -0.07421875
-0.115887962281703949 0.152125626802444458 -0.00794684980064630508
-0.0982142835855484009 0.23046875 0.07421875
-0.142857149243354797 0.1796875 0.0546875
0.562500059604644775 -0.148437485098838806 -0.140624985098838806
-0.1071428582072258 0.1640625 0.015625
-0.232142865657806396 0.0422426722943782806 -0.150166183710098267
-0.169642850756645203 0.23828125 0.15234375
-0.223214283585548401 7.74334372663498804e-13 -0.17578125
0.562499940395355225 -0.2265625 -0.183593764901161194
-0.1875 0.09765625 -0.07421875
0.47321435809135437 -0.2578125 -0.30078125
-0.169642850756645203 0.2265625 0.1640625
-0.205357149243354797 -0.125003337860107422 -0.300781190395355225
0.508928596973419189 -0.26171875 -0.238281235098838806
-0.142857164144515991 0.12109375 -0.04296875
0.580357193946838379 -0.197916671633720398 -0.1875
0.517857193946838379 -0.269531279802322388 -0.246093720197677612
0.125 -0.24609375 -0.3828125
0.419642835855484009 -0.25 -0.330729156732559204
-0.1875 -0.0130208330228924751 -0.229166656732559204
0.0178571436554193497 -0.218750014901161194 -0.3671875
-0.223214298486709595 -0.0117187490686774254 -0.195312455296516418
-0.142857149243354797 0.2421875 0.1328125
0.0714285746216773987 -0.24609375 -0.38671875
0.357142806053161621 -0.261726945638656616 -0.370123028755187988
0.5625 -0.160156235098838806 -0.1435546875
-0.366071432828903198 -0.1953125 0.3203125
-0.241071432828903198 0.04296875 -0.03125
-0.258928567171096802 0.0078125 0.06640625
-0.375 -0.234375014901161194 0.3515625
0.482142865657806396 -0.23046875 -0.265625
0.0178571436554193497 -0.210937485098838806 -0.37890625
-0.116071417927742004 0.23046875 0.06640625
-0.25 0.0468749962747097015 -0.01953125
-0.160714268684387207 0.234375 0.160156205296516418
-0.205357149243354797 0.02734375 -0.1484375
-0.232142850756645203 0.0507812425494194031 -0.01171875
-0.0446428582072257996 -0.218750029802322388 -0.3671875
-0.232142865657806396 0.00130208348855376244 -0.182291656732559204
-0.0714285746216773987 -0.21484375 -0.37109375
-0.133928567171096802 -0.203124985098838806 -0.359374970197677612
-0.312499940395355225 -0.09375 0.1640625
-0.339285701513290405 -0.16796875 0.2421875
0.205357149243354797 -0.2578125 -0.37109375
-0.1875 -0.04296875 -0.25
-0.258928567171096802 0.0078125 0.06640625
0.607142865657806396 -0.149219393730163574 -0.114063970744609833
0.0357142873108386993 -0.222656264901161194 -0.39453125
0.107142865657806396 -0.22265625 -0.37890625
-0.366071432828903198 -0.1953125 0.3203125
-0.0446428582072257996 -0.22265625 -0.375
-0.169642850756645203 0.179687514901161194 0.0703125
-0.214285716414451599 -0.0429687462747097015 -0.2265625
0.0982142835855484009 -0.23828125 -0.390625
0.357142865657806396 -0.268542438745498657 -0.378926217555999756
-0.133928582072257996 0.113281257450580597 -0.06640625
-0.232142850756645203 0.0415130220353603363 -0.142449676990509033
-0.214285716414451599 -0.0498046875 -0.257812470197677612
0.553571343421936035 -0.24609375 -0.21875
-0.116071425378322601 0.171875 0.01953125
-0.223214283585548401 0.015625 -0.1953125
0.544642865657806396 -0.20703125 -0.171875
-0.205357149243354797 0.16796875 0.109375007450580597
0.0178571436554193497 -0.2421875 -0.37890625
0.169642850756645203 -0.2421875 -0.359375
-0.196428567171096802 -0.12109375 -0.30859375
0.357142895460128784 -0.2578125 -0.351562470197677612
-0.223214283585548401 0.15625 0.140625
-0.169642850756645203 0.18359375 0.0703125
0.580357074737548828 -0.14453125 -0.14453125
0.5 -0.227539092302322388 -0.251953125
-1.28099982878160379e-12 -0.226740732789039612 -0.383381903171539307
0.383928567171096802 -0.261718720197677612 -0.3515625
-0.0982142835855484009 -0.210937514901161194 -0.371093779802322388
-1.25800886092812536e-13 -0.2421875 -0.376302063465118408
-0.241071432828903198 0.05859375 -0.03125
-0.169642865657806396 0.0703125 -0.0781250149011611938
-0.0714285746216773987 -0.23828125 -0.36328125
0.383928567171096802 -0.269531220197677612 -0.31640625
-0.133928567171096802 -0.167968735098838806 -0.33203125
-0.241071432828903198 0.046875 0.01171875
0.366071432828903198 -0.24609375 -0.339843779802322388
0.562499940395355225 -0.1953125 -0.15234375
0.383928567171096802 -0.24609375 -0.32421875
0.580357134342193604 -0.15234375 -0.15234375
-0.178571432828903198 -0.0859375 -0.2890625
-0.0535714253783226013 -0.22265625 -0.375
0.241071447730064392 -0.246875002980232239 -0.37890625
0.4375 -0.2421875 -0.304687529802322388
-0.096514873206615448 0.16015625 -0.01953125
-0.205357164144515991 -0.09375 -0.26953125
-0.0357142873108386993 -0.2265625 -0.36328125
-0.0446428582072257996 -0.21875 -0.3671875
-0.151785716414451599 0.175781235098838806 0.05859375
0.553571403026580811 -0.183593735098838806 -0.160156235098838806
-0.187499985098838806 0.0703124925494194031 -0.10546875
-0.267857134342193604 -0.0104166669771075249 0.0703125
-0.267857134342193604 -0.01953125 0.0671875029802322388
0.0357142873108386993 -0.23046875 -0.3671875
-0.366071432828903198 -0.18359375 0.296875
0.580357134342193604 -0.16796875 -0.125
-0.267857164144515991 -0.03515625 0.0781249925494194031
