ply
format ascii 1.0
element vertex 995
comment vertices
property float x
property float y
property float z
end_header
-0.116071425378322601 0.14453125 0.01953125
0.0178571436554193497 -0.2265625 -0.3671875
0.0357142873108386993 -0.214843735098838806 -0.37890625
-0.366071432828903198 -0.19140625 0.3125
0.580357193946838379 -0.2109375 -0.203124985098838806
-0.1875 0.076171875 -0.1064453125
0.330357193946838379 -0.2734375 -0.33984375
-0.169642850756645203 0.18359375 0.07421875
-0.214285716414451599 0.1640625 0.12109375
-0.241071432828903198 -0.07421875 -0.23828125
-0.116071432828903198 -0.1875 -0.34375
-0.169642850756645203 0.09375 -0.0859374925494194031
0.517857134342193604 -0.2421875 -0.253906309604644775
0.374999970197677612 -0.273437529802322388 -0.331054717302322388
-0.1875 -0.1015625 -0.27734375
-0.357142865657806396 -0.195312485098838806 0.30078125
-0.366071432828903198 -0.1875 0.296875
0.0714285746216773987 -0.234375 -0.390625
-0.125 0.2421875 0.0859375
0.535714268684387207 -0.19921875 -0.1875
0.0267857145518064499 -0.21875 -0.38671875
-0.142857164144515991 -0.18359375 -0.328125
0.5625 -0.17578125 -0.14453125
-0.0714285746216773987 -0.2265625 -0.37890625
-0.339285701513290405 -0.17578125 0.234374985098838806
-0.187499970197677612 -0.046875 -0.2470703125
0.232142850756645203 -0.26171875 -0.367187470197677612
-0.241071432828903198 0.05859375 -0.04296875
-0.187500014901161194 -0.00781249906867742538 -0.203125
0.580357074737548828 -0.147135421633720398 -0.109375
-0.0982142835855484009 0.230468735098838806 0.0625
0.0800172686576843262 -0.243197724223136902 -0.391024559736251831
0.383928567171096802 -0.25 -0.34375
0.357142835855484009 -0.2578125 -0.3671875
0.160714283585548401 -0.25390625 -0.375
0.571428596973419189 -0.20703125 -0.1640625
-0.223214283585548401 0.0078125 -0.199218764901161194
-0.107142865657806396 -0.22265625 -0.34765625
-0.1875 0.17578125 0.0820312649011611938
0.0357142873108386993 -0.21484375 -0.3828125
0.294642895460128784 -0.26953125 -0.3515625
-0.215389207005500793 0.057924758642911911 -0.0620855018496513367
-0.1875 0.17578125 0.09765625
-0.142857149243354797 0.23828125 0.12890625
0.116071425378322601 -0.23828125 -0.3671875
-0.169642850756645203 0.23046875 0.15625
0.580357134342193604 -0.16015625 -0.160156264901161194
-0.205357149243354797 -0.0247395839542150497 -0.243489578366279602
-0.366071432828903198 -0.234375 0.33984375
0.544642865657806396 -0.20703125 -0.17578125
-0.160714283585548401 -0.1796875 -0.34375
-0.366071432828903198 -0.19140625 0.296875
0.491071432828903198 -0.226562514901161194 -0.2734375
-0.0357142835855484009 -0.22265625 -0.37109375
-0.1071428582072258 -0.199218735098838806 -0.36328125
-0.357142865657806396 -0.1953125 0.30078125
-0.116071425378322601 0.16796875 0.03125
0.366071403026580811 -0.268229156732559204 -0.36328125
-0.232142865657806396 0.0734806135296821594 -0.108680069446563721
-0.125 -0.18359375 -0.3359375
0.321428567171096802 -0.246093764901161194 -0.35546875
0.1071428582072258 -0.22265625 -0.37890625
-0.196428567171096802 -0.12109375 -0.2890625
0.562499940395355225 -0.24609375 -0.21484375
0.241071432828903198 -0.23828125 -0.3515625
-0.312500029802322388 -0.12109375 0.203125014901161194
-0.196428596973419189 0.0859375 -0.0703125074505805969
-0.357142865657806396 -0.1875 0.304687529802322388
0.0892857015132904053 -0.2265625 -0.3671875
-0.142857149243354797 0.23828125 0.11328125
0.0535714291036128998 -0.218749985098838806 -0.382812470197677612
-0.267857134342193604 -0.0781286731362342834 0.0976575687527656555
0.473214298486709595 -0.2265625 -0.28125
-0.1071428582072258 0.1484375 -0.00390625
-0.142857149243354797 0.17578125 0.05859375
0.330357134342193604 -0.257812529802322388 -0.33203125
-0.3125 -0.0976562425494194031 0.16015625
-0.3125 -0.109375 0.175781264901161194
0.375 -0.269531309604644775 -0.3671875
0.205357149243354797 -0.23828125 -0.359375
-0.0803571492433547974 -0.22265625 -0.34765625
-0.196428567171096802 0.04296875 -0.16796875
-0.383928567171096802 -0.22265625 0.33984375
-0.142857149243354797 0.171875 0.0429687462747097015
0.276785701513290405 -0.259277641773223877 -0.341216564178466797
-0.0803571417927742004 -0.234375 -0.359375
-0.375 -0.230468735098838806 0.347656160593032837
-0.366071462631225586 -0.1875 0.28515625
0.258928567171096802 -0.23828125 -0.36328125
-0.25 0.0078125 0.0546875
0.0714285746216773987 -0.246093735098838806 -0.38671875
-0.348214298486709595 -0.18359375 0.26171875
0.1071428582072258 -0.22265625 -0.3828125
-0.312500059604644775 -0.12890625 0.214843764901161194
-0.0803571417927742004 -0.20703125 -0.36328125
-0.125 -0.21484375 -0.33984375
0.116071425378322601 -0.23046875 -0.36328125
-0.366071492433547974 -0.1875 0.28125
-0.232142865657806396 0.04296875 -0.02734375
0.169642850756645203 -0.25390625 -0.37890625
0.214285701513290405 -0.238281279802322388 -0.378906220197677612
0.142857134342193604 -0.234374985098838806 -0.38671875
-0.125 -0.1875 -0.359375
-0.205357149243354797 -0.10546875 -0.278645843267440796
-0.142857149243354797 0.171875 0.046875
0.598214209079742432 -0.18359375 -0.156250014901161194
0.5625 -0.17578125 -0.17578125
-0.151785716414451599 0.2421875 0.125
0.348214298486709595 -0.249218747019767761 -0.335156261920928955
0.553571343421936035 -0.19140625 -0.16015625
-0.321428567171096802 -0.10546875 0.19140625
0.455357164144515991 -0.2578125 -0.300781309604644775
-0.223214283585548401 0.0771484449505805969 -0.116210944950580597
-0.0982142910361289978 0.19921875 0.04296875
-0.357142865657806396 -0.1875 0.29296875
0.616071403026580811 -0.135742172598838806 -0.109375
-0.205357164144515991 -0.015625 -0.234375014901161194
-0.258928567171096802 -0.0234375 0.0820312649011611938
0.357194632291793823 -0.281250178813934326 -0.391593068838119507
0.508928537368774414 -0.238281264901161194 -0.257812470197677612
-0.0625 -0.21484375 -0.355468690395355225
-0.366071432828903198 -0.22265625 0.3359375
0.0446428582072257996 -0.21484375 -0.382812470197677612
-0.205357149243354797 0.0859375 -0.0859375
-0.160714283585548401 0.23828125 0.148437529802322388
-0.187499970197677612 -0.0283203106373548508 -0.2294921875
0.196428567171096802 -0.23046875 -0.3671875
-0.223214283585548401 -0.0221876036375761032 -0.198139101266860962
-0.3125 -0.10546875 0.203125
0.473214328289031982 -0.251302063465118408 -0.304687470197677612
-0.133928552269935608 -0.1953125 -0.328125
-0.0178571436554193497 -0.23046875 -0.36328125
-0.285714268684387207 -0.09765625 0.12109375
-0.151785716414451599 0.23828125 0.13671875
0.0714285746216773987 -0.23828125 -0.394531279802322388
-0.0892857164144515991 -0.234375 -0.359375
-0.178571432828903198 0.1796875 0.078125
-0.303571432828903198 -0.1015625 0.18359375
-0.214285716414451599 -0.0507812425494194031 -0.26171875
-0.1875 -0.0651041716337203979 -0.259114563465118408
-0.258928537368774414 0.015625 0.0625
-0.196428567171096802 -0.1015625 -0.30078125
-0.375000029802322388 -0.21875 0.332031279802322388
0.366071432828903198 -0.26953125 -0.37109375
-0.321428567171096802 -0.098958335816860199 0.16796875
-0.348214298486709595 -0.16796875 0.234375
-0.383928596973419189 -0.21875 0.3359375
-0.0982142835855484009 0.140624985098838806 -0.046875
0.366071492433547974 -0.28125 -0.390625
-0.116071425378322601 -0.21484375 -0.36328125
-0.357142895460128784 -0.1875 0.2734375
-0.25 -0.00911458302289247513 0.0651041716337203979
-0.196428567171096802 0.0859375 -0.07421875
-0.0892857164144515991 0.153650239109992981 0.00127435044851154089
0.553571403026580811 -0.1796875 -0.15234375
0.196428567171096802 -0.23828125 -0.38671875
0.571428596973419189 -0.1875 -0.14453125
0.0892857089638710022 -0.24609375 -0.3828125
-0.223214268684387207 -0.00390625 -0.18359375
0.375000029802322388 -0.2587890625 -0.359375029802322388
0.544642865657806396 -0.218749985098838806 -0.22265625
0.589285731315612793 -0.178385421633720398 -0.16796875
-0.142857164144515991 -0.199218764901161194 -0.339843779802322388
-0.348214298486709595 -0.16796875 0.23828125
-0.098214276134967804 0.187499970197677612 0.0182291679084300995
-0.125 0.14453125 0.02734375
-0.375 -0.23046875 0.33203125
-0.214285716414451599 3.31617849499976636e-12 -0.17578125
-0.214285716414451599 0.0585937537252902985 -0.0986413732171058655
-0.151785701513290405 0.18359375 0.0625
0.0982142835855484009 -0.23046875 -0.39453125
-0.116071425378322601 0.16796875 0.01953125
0.232142835855484009 -0.26171875 -0.3671875
-0.214285716414451599 0.16796875 0.12890625
0.544642865657806396 -0.246093764901161194 -0.209960952401161194
0.1071428582072258 -0.23828125 -0.390625
0.214285731315612793 -0.2578125 -0.35546875
0.187319174408912659 -0.253826260566711426 -0.35546875
-0.330357134342193604 -0.121093742549419403 0.21875
-0.366071432828903198 -0.19140625 0.30859375
-0.160714283585548401 0.2421875 0.15234375
0.169642850756645203 -0.230468735098838806 -0.37109375
-0.0892857164144515991 0.152268022298812866 -0.00520401075482368469
0.526785790920257568 -0.2265625 -0.2265625
-0.160714283585548401 0.234374985098838806 0.1484375
-0.178571432828903198 -0.09765625 -0.296875
-0.178571432828903198 0.0869140550494194031 -0.0898437574505805969
-0.383928567171096802 -0.21875 0.335937440395355225
-0.116071425378322601 0.14453125 0.0156249981373548508
-0.125 -0.214843735098838806 -0.359375
-0.160714298486709595 0.23828125 0.140625
0.0714285746216773987 -0.22265625 -0.3828125
-0.0803571417927742004 -0.22265625 -0.34765625
-0.116071432828903198 0.23046875 0.06640625
-0.25 -0.00390625046566128731 0.0625
0.366071432828903198 -0.24609375 -0.33984375
0.526785731315612793 -0.2265625 -0.226562485098838806
-0.214285716414451599 0.1640625 0.13671875
0.0714285671710968018 -0.23828125 -0.39453125
-0.25 0.046875 -0.02734375
0.276785701513290405 -0.242092147469520569 -0.347356230020523071
-0.241071432828903198 0.05859375 -0.04296875
-0.366071462631225586 -0.234375 0.34375
-0.125 0.113281287252902985 -0.0625
0.00892857182770967484 -0.2109375 -0.382812470197677612
-0.196428567171096802 -0.0390625 -0.23046875
0.455357164144515991 -0.2421875 -0.28125
-0.0178571436554193497 -0.23046875 -0.36328125
-0.330357134342193604 -0.14453125 0.234375
-0.267857134342193604 0.03125 0.03125
-0.125 0.14453125 0.015625
-0.187500014901161194 -0.1015625 -0.27734375
-0.116071425378322601 0.171875 0.0156249990686774254
-0.0892857164144515991 0.141928926110267639 -0.0234375
0.0803571268916130066 -0.2421875 -0.390625
0.116071425378322601 -0.226562485098838806 -0.37109375
0.375 -0.24609375 -0.33203125
-0.0982142835855484009 0.183602124452590942 0.01171875
-0.0982142835855484009 0.16015625 0.0078125
-0.383928567171096802 -0.22265625 0.3359375
0.383928596973419189 -0.269531220197677612 -0.324218690395355225
0.348214298486709595 -0.26953125 -0.339843779802322388
-0.196428582072257996 0.0771484375 -0.116210944950580597
-0.214285716414451599 0.17578125 0.12109375
-0.357142865657806396 -0.19140625 0.30859375
0.544642865657806396 -0.199218735098838806 -0.171875
-0.241071432828903198 0.0546875 -0.0078125
-0.348214298486709595 -0.17578125 0.25
0.508928596973419189 -0.238281235098838806 -0.26171875
-0.160714268684387207 0.2421875 0.15625
0.178571432828903198 -0.25390625 -0.36328125
-0.1071428582072258 0.23828125 0.0859375074505805969
0.339285701513290405 -0.269531220197677612 -0.339843779802322388
-0.142857149243354797 0.17578125 0.0585937537252902985
-0.258928567171096802 -0.046875 0.0937500074505805969
-0.116071425378322601 0.23828125 0.0703125
-0.25 0.03125 0.01953125
-0.125 0.13671875 -0.046875
-0.321428567171096802 -0.15234375 0.23046875
0.258928567171096802 -0.23828125 -0.35546875
-0.205357149243354797 0.171875 0.1015625
-0.142857149243354797 -0.1796875 -0.3515625
-0.196428567171096802 0.171875 0.09765625
0.0267857126891613007 -0.22265625 -0.390625
0.526785731315612793 -0.22265625 -0.21875
-0.116071410477161407 0.13671875 -0.02734375
0.366071462631225586 -0.26171875 -0.351562529802322388
0.517857134342193604 -0.234375 -0.246093779802322388
0.151785716414451599 -0.25 -0.3828125
-0.0267857126891613007 -0.2265625 -0.3671875
-0.214285716414451599 -0.09765625 -0.281249970197677612
-0.25 0.046875 0.015625
0.553571403026580811 -0.2421875 -0.23046875
-0.151785716414451599 0.23828125 0.13671875
0.571428596973419189 -0.23828125 -0.20703125
0.544642865657806396 -0.21875 -0.22265625
0.214285716414451599 -0.2578125 -0.35546875
-0.196428567171096802 0.0888671875 -0.09375
-0.151785716414451599 0.1796875 0.0625
0.571428596973419189 -0.14453125 -0.11328125
-0.0267857145518064499 -0.2265625 -0.363281279802322388
-0.0803571417927742004 -0.20703125 -0.36328125
-0.375 -0.2421875 0.347656309604644775
0.491071462631225586 -0.23046875 -0.25
-0.116071425378322601 0.23828125 0.0703125
0.589285731315612793 -0.19921875 -0.167968735098838806
0.0178571417927742004 -0.2109375 -0.3828125
-0.205357134342193604 0.0703125 -0.078125
0.392857134342193604 -0.265624970197677612 -0.34375
-0.196428567171096802 -0.0117187509313225746 -0.19921875
-0.1875 0.0859375 -0.0976562425494194031
-0.196428582072257996 -0.0716145709156990051 -0.278645783662796021
-0.151785716414451599 0.175781264901161194 0.0625000074505805969
-0.348214298486709595 -0.19140625 0.25390625
-0.3125 -0.117187507450580597 0.21484375
-0.232142850756645203 0.072916664183139801 -0.084635414183139801
-0.366071432828903198 -0.18359375 0.2890625
-0.294642865657806396 -0.0859375074505805969 0.1328125
0.562500059604644775 -0.12890625 -0.120728179812431335
-0.169642835855484009 0.234375 0.1640625
-0.214285716414451599 0.16015625 0.13671875
-0.0714285746216773987 -0.222656235098838806 -0.378906279802322388
-0.366071432828903198 -0.19140625 0.3046875
-0.303571432828903198 -0.1171875 0.20703125
-0.303571432828903198 -0.09375 0.171875014901161194
-0.375 -0.23046875 0.33203125
-0.339285701513290405 -0.17578125 0.24609375
0.1875 -0.25 -0.3828125
-0.223214283585548401 0.0703124925494194031 -0.125
-0.151785716414451599 0.179687514901161194 0.0625
-0.303571432828903198 -0.1015625 0.1875
-0.1875 0.17578125 0.09765625
-0.241071417927742004 -0.07421875 -0.23828125
0.428571432828903198 -0.249999746680259705 -0.289713621139526367
-0.169642850756645203 0.23828125 0.15234375
-0.214285716414451599 -0.02734375 -0.2109375
0.205357149243354797 -0.25390625 -0.35546875
0.116071425378322601 -0.2265625 -0.37109375
0.571428596973419189 -0.222656235098838806 -0.19140625
-0.25 0.046875 0.00390625046566128731
0.187499985098838806 -0.23046875 -0.378906279802322388
-0.151785716414451599 -0.15234375 -0.3212890625
-0.0892857089638710022 0.154954105615615845 -0.0117277931421995163
-0.357142865657806396 -0.18359375 0.273437470197677612
-0.223214298486709595 0.01171875 -0.1640625
-0.357142865657806396 -0.1953125 0.30859375
-0.383928567171096802 -0.22265625 0.33984375
-0.223214268684387207 -6.06074299904987845e-14 -0.1796875
-0.267857134342193604 -0.0703125 0.0859375
0.410714298486709595 -0.24609375 -0.3203125
-0.267857104539871216 -0.015625 0.0625000074505805969
-0.196428582072257996 -0.0937500149011611938 -0.296874970197677612
-0.0178571436554193497 -0.2265625 -0.3671875
-0.169642850756645203 0.23046875 0.164062514901161194
0.517857134342193604 -0.265624970197677612 -0.23828125
-0.25 1.40099119371600578e-12 0.0546875
0.383928596973419189 -0.26953125 -0.335937529802322388
-0.205357134342193604 -0.08984375 -0.265625
0.0803571417927742004 -0.234375 -0.394531220197677612
-0.142857164144515991 0.121093757450580597 -0.0498046912252902985
-0.0267857145518064499 -0.2421875 -0.3828125
0.5 -0.233072921633720398 -0.248697921633720398
-0.267857134342193604 0.026041664183139801 0.0338541679084300995
0.5625 -0.23046875 -0.191406264901161194
0.107142850756645203 -0.2265625 -0.3671875
-0.366071432828903198 -0.234375 0.33984375
-0.258928567171096802 0.0364583283662796021 0.0156249990686774254
0.266914665699005127 -0.270863175392150879 -0.343866467475891113
-0.366071432828903198 -0.22265625 0.328125
-0.303571432828903198 -0.1015625 0.12890625
0.00892857275903224945 -0.21875 -0.3671875
-0.160714283585548401 0.238281235098838806 0.1484375
0.544642865657806396 -0.25390625 -0.24609375
0.285714298486709595 -0.265625 -0.35546875
0.160714298486709595 -0.2265625 -0.37109375
-0.258928567171096802 -0.0078125 0.05859375
-0.196428552269935608 0.0703125 -0.114257805049419403
-0.366071432828903198 -0.19140625 0.296875
-0.258928567171096802 -0.052083335816860199 0.0937499925494194031
-0.312499970197677612 -0.10546875 0.156250029802322388
-0.1875 0.0664062574505805969 -0.109375007450580597
-0.089285723865032196 0.19140625 0.015625
-0.232142850756645203 0.0546875 -0.0078125
-0.178571447730064392 -0.09765625 -0.296875
0.598214268684387207 -0.16015625 -0.12109375
-0.0267857145518064499 -0.2421875 -0.3828125
-0.214285716414451599 0.1640625 0.13671875
0.607142925262451172 -0.148437529802322388 -0.136718764901161194
-0.196428567171096802 0.179687485098838806 0.0937499776482582092
-0.375 -0.21484375 0.328125
0.517857134342193604 -0.233398452401161194 -0.218750014901161194
0.5625 -0.22265625 -0.1796875
0.455357164144515991 -0.234374985098838806 -0.2841796875
-0.142025694251060486 0.118554107844829559 -0.0657468065619468689
0.544642806053161621 -0.204427078366279602 -0.16796875
0.598214209079742432 -0.171875029802322388 -0.1484375
-0.160714283585548401 -0.171093747019767761 -0.34765625
0.428571462631225586 -0.2607421875 -0.29296875
-0.160714283585548401 -0.12890625 -0.308593809604644775
-0.357142865657806396 -0.1796875 0.25
-0.214285716414451599 0.06640625 -0.140625014901161194
0.133928567171096802 -0.2265625 -0.3828125
-0.125 0.13671875 -0.046875
-0.205357149243354797 -0.109375 -0.28125
-0.232142850756645203 0.05078125 -0.05078125
-0.196428567171096802 0.00781249301508069038 -0.17578125
0.482142865657806396 -0.23046875 -0.2578125
0.571428656578063965 -0.16015625 -0.123697914183139801
-0.348214298486709595 -0.1796875 0.2421875
-0.348214298486709595 -0.171875 0.2421875
-0.312499970197677612 -0.09765625 0.1376953125
-0.142857149243354797 -0.18359375 -0.328125029802322388
-0.133928567171096802 -0.195312485098838806 -0.328125
-0.116071425378322601 -0.18359375 -0.3515625
-0.0267857145518064499 -0.2265625 -0.3671875
-0.1875 -0.109375007450580597 -0.281250029802322388
-0.160714283585548401 0.18359375 0.0703125
0.107142865657806396 -0.24609375 -0.37890625
0.5625 -0.214843735098838806 -0.21875
-0.116071425378322601 -0.21875 -0.359375
0.571428596973419189 -0.2265625 -0.203124970197677612
-0.178571432828903198 0.07421875 -0.08984375
-0.214285716414451599 0.17578125 0.12109375
-0.303571403026580811 -0.0820312425494194031 0.121093742549419403
-0.357142865657806396 -0.18359375 0.2890625
-0.151785716414451599 0.18359375 0.0625
-0.00441492581740021706 -0.223113268613815308 -0.372433632612228394
0.589285731315612793 -0.151095688343048096 -0.111088365316390991
-0.089285731315612793 0.20703125 0.03125
-0.312500029802322388 -0.12109375 0.214843735098838806
-0.374999970197677612 -0.2421875 0.34765625
0.357142835855484009 -0.26171875 -0.371093720197677612
-0.116071432828903198 0.234375 0.0781249850988388062
0.5 -0.2265625 -0.269531220197677612
-0.214285716414451599 0.17578125 0.12109375
0.499999970197677612 -0.243164047598838806 -0.2763671875
-0.366071432828903198 -0.203125 0.32421875
-0.303571462631225586 -0.0976562574505805969 0.16796875
-0.169642850756645203 0.23046875 0.171875014901161194
0.00892857182770967484 -0.2265625 -0.3671875
-0.133928567171096802 0.18359375 0.04296875
-0.0982142835855484009 -0.22265625 -0.34375
0.205357164144515991 -0.2578125 -0.371093779802322388
0.0178571436554193497 -0.2421875 -0.378906279802322388
-0.142857149243354797 0.17578125 0.05859375
-0.330357134342193604 -0.12109375 0.222656264901161194
-0.294642895460128784 -0.1015625 0.144531235098838806
-0.3125 -0.1015625 0.1953125
0.473214298486709595 -0.23046875 -0.285156279802322388
-0.1071428582072258 0.23828125 0.0859375
-0.151785716414451599 -0.140625 -0.31640625
-0.294642865657806396 -0.1015625 0.140625
-0.223214298486709595 -0.0664062425494194031 -0.259114593267440796
-0.187499985098838806 0.1796875 0.08203125
-0.25 0.0234375 0.0507812462747097015
-0.169642850756645203 0.23828125 0.152343779802322388
-0.196428582072257996 0.0649102777242660522 -0.120510958135128021
-0.196428567171096802 0.0390625 -0.16796875
-0.357142865657806396 -0.1953125 0.3125
0.508928537368774414 -0.25 -0.26953125
-0.142857149243354797 -0.16015625 -0.33984375
-0.241071432828903198 0.03515625 0.015625
-0.169642850756645203 0.234375 0.1640625
-0.178571432828903198 0.234375 0.17578125
-0.241071432828903198 0.0507812462747097015 -0.03515625
-0.339285701513290405 -0.1796875 0.25
0.0982142835855484009 -0.22265625 -0.3828125
-0.232142850756645203 0.05859375 -0.0273437425494194031
0.5625 -0.16796875 -0.1328125
-0.357142865657806396 -0.18359375 0.2890625
-0.267857134342193604 -0.0130208339542150497 0.0703125
0.607142925262451172 -0.14453125 -0.107098467648029327
-0.0267857145518064499 -0.24609375 -0.3828125
-0.366071432828903198 -0.1953125 0.3203125
0.0357142873108386993 -0.222656235098838806 -0.3671875
0.589285790920257568 -0.132812514901161194 -0.1328125
-0.330357134342193604 -0.15234375 0.23828125
-0.187500029802322388 -0.1416015625 -0.3251953125
-0.125 -0.2109375 -0.36328125
-0.357142865657806396 -0.17578125 0.246093764901161194
-0.214285716414451599 0.1640625 0.12109375
0.0357142873108386993 -0.2421875 -0.3828125
-0.0714285820722579956 -0.238281235098838806 -0.362500011920928955
0.464285701513290405 -0.23828125 -0.3046875
-0.231425240635871887 0.0625254958868026733 -0.0345899686217308044
-0.241071432828903198 0.0468750037252902985 -0.03125
-0.196428582072257996 0.1796875 0.09765625
-0.232142835855484009 0.05078125 -0.0078125
0.553571403026580811 -0.19140625 -0.16015625
-0.169642850756645203 0.17578125 0.0703125
-0.267857134342193604 -0.0507812537252902985 0.078125
0.0982142835855484009 -0.230468735098838806 -0.39453125
-0.214285716414451599 -0.03515625 -0.22265625
0.535714268684387207 -0.230468735098838806 -0.19140625
-0.187500014901161194 -0.07421875 -0.27734375
-0.1071428582072258 0.14453125 -0.0078125
-0.214285716414451599 0.0546875037252902985 -0.152343735098838806
0.473214298486709595 -0.24609375 -0.30859375
0.553571462631225586 -0.125000014901161194 -0.121093742549419403
-0.232142850756645203 0.0185546875 -0.17578125
0.232142850756645203 -0.2578125 -0.37109375
0.5 -0.23046875 -0.26953125
-0.375 -0.23046875 0.3359375
0.0803571417927742004 -0.24609375 -0.38671875
-0.1071428582072258 0.1640625 0.01171875
0.268661558628082275 -0.238057538866996765 -0.359499812126159668
-0.374999970197677612 -0.21484375 0.328125
-0.169642850756645203 0.102864585816860199 -0.0585937462747097015
-0.303571432828903198 -0.10546875 0.14453125
-0.258928567171096802 -0.0234375018626451492 0.08203125
0.357142835855484009 -0.265625029802322388 -0.375
0.598214268684387207 -0.1640625 -0.15234375
-0.116071425378322601 0.141927078366279602 -0.0390625
-0.178571432828903198 0.2265625 0.171875
0.589285671710968018 -0.1982421875 -0.171874985098838806
-0.241071432828903198 0.0546875 -0.0078125
-0.0714285746216773987 -0.21484375 -0.37109375
0.535714268684387207 -0.20703125 -0.203125014901161194
-0.0982142835855484009 0.14453125 -0.0390624962747097015
-0.00892857182770967484 -0.24609375 -0.36328125
0.285714298486709595 -0.2421875 -0.3515625
-0.196428552269935608 -0.00520833302289247513 -0.1875
-0.223214268684387207 -0.0578125007450580597 -0.259375005960464478
-0.133928552269935608 -0.1953125 -0.328125
0.455357134342193604 -0.2421875 -0.28125
-0.232142850756645203 -0.0664062425494194031 -0.242187485098838806
-0.133928582072257996 -0.2109375 -0.35546875
-0.375 -0.23828125 0.33984375
-0.125 0.1171875 -0.04296875
-0.154270052909851074 -0.177019178867340088 -0.324208766222000122
-0.258928567171096802 -0.00390625 0.07421875
-0.285714298486709595 -0.07421875 0.101562507450580597
-0.258928596973419189 -0.0390625037252902985 0.07421875
0.5625 -0.1640625 -0.140625
-0.0892857164144515991 -0.203125 -0.3515625
-0.1875 -0.0117187490686774254 -0.230468764901161194
-0.133928567171096802 -0.19921875 -0.3359375
-0.169132828712463379 -0.104272298514842987 -0.29113161563873291
-0.196428552269935608 0.00390625046566128731 -0.191406264901161194
-0.1875 0.0898437425494194031 -0.08984375
0.0714285746216773987 -0.24609375 -0.375
0.0625 -0.234375 -0.39453125
-0.142857149243354797 0.24609375 0.12890625
-0.366071432828903198 -0.1875 0.28515625
0.330357134342193604 -0.246093735098838806 -0.343750029802322388
-0.232142850756645203 0.0625000074505805969 -0.0318450592458248138
-0.160714298486709595 0.113281220197677612 -0.06249995157122612
0.455357134342193604 -0.25390625 -0.308593720197677612
-0.169642850756645203 0.1015625 -0.08203125
0.5 -0.246093764901161194 -0.296875
0.5625 -0.16796875 -0.1640625
-0.169642850756645203 0.23828125 0.15234375
0.482142895460128784 -0.2490234375 -0.3046875
-0.0982142835855484009 0.19140625 0.03515625
-0.339285701513290405 -0.175781264901161194 0.24609375
-0.25 -0.0390625037252902985 0.08984375
0.580888926982879639 -0.13135114312171936 -0.102909944951534271
-0.25 0.0546875037252902985 -0.01171875
0.473214328289031982 -0.244791671633720398 -0.266927063465118408
-0.214285716414451599 0.04296875 -0.1640625
-0.142857149243354797 0.12109375 -0.0625
-0.133928567171096802 0.238281264901161194 0.10546875
0.366071462631225586 -0.261718779802322388 -0.3203125
-0.196428433060646057 0.0583954900503158569 -0.13671875
-0.205357164144515991 0.01953125 -0.19140625
0.419642865657806396 -0.25 -0.335937529802322388
-0.0803571417927742004 -0.22265625 -0.34765625
-0.151785716414451599 0.23828125 0.128906264901161194
-0.133928567171096802 0.18359375 0.0429687537252902985
-0.142857149243354797 -0.1760997474193573 -0.323679268360137939
-0.267857164144515991 0.015625 0.0546875
-0.116071425378322601 0.12890625 -0.0312499981373548508
0.321428567171096802 -0.247395828366279602 -0.338541716337203979
-0.232142835855484009 0.02734375 -0.168945297598838806
-0.357142865657806396 -0.203125014901161194 0.316406220197677612
-0.0982142835855484009 -0.21484375 -0.34375
0.276785701513290405 -0.2421875 -0.363281220197677612
0.508928537368774414 -0.25 -0.23046875
-0.214285746216773987 -0.0533226877450942993 -0.240905284881591797
0.562500059604644775 -0.1796875 -0.18359375
0.151785716414451599 -0.23046875 -0.36328125
-0.214285701513290405 -0.0185546875 -0.2333984375
0.464285701513290405 -0.234375 -0.26953125
-0.366071432828903198 -0.234375 0.34375
-0.285714298486709595 -0.09375 0.125
-0.383928567171096802 -0.22265625 0.3359375
-0.215477660298347473 -0.0316886231303215027 -0.212727576494216919
0.589285731315612793 -0.203125 -0.171875
-0.366071432828903198 -0.222656264901161194 0.328124970197677612
-0.107142873108386993 -0.1953125 -0.3515625
0.589285731315612793 -0.171875 -0.1640625
-0.0535714291036128998 -0.246093735098838806 -0.36328125
-0.339285701513290405 -0.15625 0.23828125
-0.223214283585548401 0.020189652219414711 -0.153309181332588196
-0.187461823225021362 0.0722413584589958191 -0.0950726643204689026
0.464285701513290405 -0.25 -0.3125
-0.357142865657806396 -0.1875 0.29296875
0.464285701513290405 -0.24609375 -0.27734375
0.598214328289031982 -0.17578125 -0.15625
-0.0714285746216773987 -0.21484375 -0.371093779802322388
-0.205357164144515991 0.0507812574505805969 -0.15625
-0.160714283585548401 0.109375 -0.07421875
-0.348214268684387207 -0.1875 0.2578125
-0.107142850756645203 0.1259765625 -0.05078125
-0.25 0.01171875 0.046875
-0.241071432828903198 0.0468749962747097015 -0.0377604179084300995
0.0357142835855484009 -0.21484375 -0.3828125
0.0892857015132904053 -0.24609375 -0.3828125
0.535714387893676758 -0.2578125 -0.25390625
0.321428567171096802 -0.260416686534881592 -0.356770813465118408
-0.258928567171096802 -0.0078125 0.05859375
-0.196428582072257996 -0.00390625 -0.194010406732559204
0.0625 -0.234375 -0.39453125
-0.321428567171096802 -0.109375014901161194 0.19140625
-0.0357142873108386993 -0.234375 -0.3828125
-0.160714283585548401 0.113281242549419403 -0.0664062425494194031
0.196428567171096802 -0.25390625 -0.37890625
-0.0267857145518064499 -0.25 -0.37890625
-0.0982142835855484009 0.221679702401161194 0.0625000074505805969
-0.1875 -0.109375 -0.28125
0.0892857089638710022 -0.23828125 -0.39453125
-0.142857149243354797 0.25 0.125
-0.0714285746216773987 -0.23828125 -0.37109375
-0.178571447730064392 -0.163890689611434937 -0.320343315601348877
-0.375 -0.23046875 0.335937470197677612
0.580357193946838379 -0.2236328125 -0.20703125
0.4375 -0.253906220197677612 -0.28515625
0.544642865657806396 -0.20703125 -0.171875
-0.1875 0.0939821898937225342 -0.0803571343421936035
0.5625 -0.2265625 -0.18359375
-0.116071432828903198 0.2421875 0.09375
0.553571462631225586 -0.244140610098838806 -0.2373046875
0.330357134342193604 -0.24609375 -0.354492217302322388
-0.0267857164144515991 -0.25 -0.36328125
-0.357142865657806396 -0.1953125 0.30078125
-0.187500014901161194 0.078125 -0.0781250074505805969
0.214285716414451599 -0.24609375 -0.3515625
0.580357134342193604 -0.164062514901161194 -0.125
-0.375 -0.23046875 0.33984375
0.0714285746216773987 -0.226562485098838806 -0.367187529802322388
-0.357142865657806396 -0.19140625 0.30078125
-0.223214283585548401 0.15625 0.14453125
0.0892857164144515991 -0.234375014901161194 -0.3671875
-0.0803571417927742004 -0.2265625 -0.37890625
-0.357142865657806396 -0.17578125 0.2421875
-0.3125 -0.140625 0.21875
-0.1875 -0.140625 -0.3046875
-0.0982142835855484009 0.1328125 -0.046875
-0.151785716414451599 -0.175781264901161194 -0.3515625
0.598214268684387207 -0.1796875 -0.148437470197677612
-0.357142865657806396 -0.1796875 0.25
0.535714268684387207 -0.21484375 -0.183593735098838806
-0.205357149243354797 0.171875 0.1015625
-0.223214283585548401 0.05859375 -0.0390625
-0.151785716414451599 0.179687514901161194 0.0625
-0.375000029802322388 -0.21875 0.33203125
0.589285790920257568 -0.19921875 -0.164062485098838806
-0.142857149243354797 0.23828125 0.125
0.160714283585548401 -0.250000029802322388 -0.382812470197677612
-0.133928582072257996 -0.1796875 -0.351562470197677612
-0.142857164144515991 -0.16015625 -0.339843779802322388
-0.116071425378322601 0.149218752980232239 -0.0164062492549419403
0.0446428582072257996 -0.2265625 -0.3671875
0.232142850756645203 -0.23828125 -0.367187440395355225
-0.151785716414451599 0.23828125 0.13671875
-0.366071432828903198 -0.1875 0.3046875
-0.366071432828903198 -0.222656235098838806 0.328125
-0.0892857164144515991 0.160177215933799744 -0.00394292687997221947
-0.0803571417927742004 -0.234374985098838806 -0.36328125
0.312500029802322388 -0.25 -0.367187470197677612
0.276785701513290405 -0.261718690395355225 -0.3671875
0.116071425378322601 -0.25 -0.37109375
-0.142857149243354797 -0.19921875 -0.3515625
-0.0982142835855484009 0.188802078366279602 0.0234374981373548508
-0.160714283585548401 0.2421875 0.15234375
-0.196428567171096802 0.17578125 0.10546875
-0.357142865657806396 -0.1875 0.28515625
-0.160714298486709595 0.179687529802322388 0.0703125
-0.232142850756645203 0.04296875 -0.03125
0.0892857164144515991 -0.234375 -0.3671875
-0.223214283585548401 0.16796875 0.12890625
-0.25 0.0468750037252902985 -0.0234375
-0.383928567171096802 -0.218750014901161194 0.3359375
0.562499940395355225 -0.17578125 -0.144531279802322388
-0.151785716414451599 -0.179687514901161194 -0.32421875
-0.25 -0.00390625 0.0703124925494194031
-0.205357149243354797 0.03125 -0.1484375
-0.0178571436554193497 -0.23828125 -0.359375
0.544642925262451172 -0.19921875 -0.1953125
-0.151785716414451599 0.2421875 0.1328125
-0.258928537368774414 -0.04296875 0.09375
0.169642850756645203 -0.25390625 -0.37109375
-0.312500238418579102 -0.09765625 0.19140625
-0.133928567171096802 -0.1953125 -0.359375059604644775
-0.116071425378322601 0.171875 0.0195312518626451492
0.241071432828903198 -0.247088894248008728 -0.34765625
-0.116071440279483795 0.1484375 0.0234375018626451492
-0.223214283585548401 0.046875 -0.160156264901161194
-0.258928567171096802 0.0390625074505805969 0.03125
-0.357142895460128784 -0.1875 0.29296875
-0.151785716414451599 0.23828125 0.136718764901161194
-0.3125 -0.10546875 0.203125
-0.3125 -0.0911458209156990051 0.140625
-0.169642850756645203 -0.15234375 -0.339843720197677612
0.598214209079742432 -0.12890625 -0.128906235098838806
0.285714298486709595 -0.26171875 -0.359375
-0.330357134342193604 -0.12890625 0.21484375
-0.00892857275903224945 -0.25 -0.378906220197677612
-0.0446428582072257996 -0.23828125 -0.3828125
-0.0178571436554193497 -0.2265625 -0.37109375
-0.151785701513290405 0.100585922598838806 -0.078125
0.375000029802322388 -0.2578125 -0.31640625
0.231196373701095581 -0.256253451108932495 -0.352381020784378052
-0.169642850756645203 0.1796875 0.0703125
0.526785790920257568 -0.260416656732559204 -0.261067688465118408
-0.366071432828903198 -0.19140625 0.30078125
0.267857164144515991 -0.2421875 -0.367187470197677612
-0.330357134342193604 -0.16015625 0.23046875
0.607142925262451172 -0.133889377117156982 -0.120296254754066467
-0.0178571436554193497 -0.24609375 -0.3828125
0.169642865657806396 -0.23046875 -0.37109375
-0.142857149243354797 -0.19921875 -0.35546875
-0.196428567171096802 -0.078125 -0.25390625
-0.1071428582072258 0.125 -0.04296875
-0.0982142835855484009 0.178385406732559204 0.0234375
-0.205357149243354797 0.175781235098838806 0.09765625
0.00892857182770967484 -0.2109375 -0.37109375
0.535714268684387207 -0.23046875 -0.19140625
-0.357142865657806396 -0.1953125 0.30078125
-0.321428567171096802 -0.125 0.2109375
-0.20521824061870575 -0.0634521022439002991 -0.244131624698638916
-0.374999970197677612 -0.21875 0.33203125
-0.267857164144515991 0.02734375 0.0468750037252902985
0.544642865657806396 -0.25 -0.21875
0.133928582072257996 -0.226562529802322388 -0.367187440395355225
-0.178571447730064392 0.0771484375 -0.09375
-0.089285723865032196 -0.23046875 -0.3671875
0.4375 -0.25 -0.28515625
-0.196823000907897949 -0.0626960247755050659 -0.242289125919342041
0.5625 -0.167968764901161194 -0.140624985098838806
0.571428596973419189 -0.203125 -0.203125
-0.169642850756645203 0.0859375149011611938 -0.0768229216337203979
-0.0535714291036128998 -0.226562514901161194 -0.37890625
0.1875 -0.257280468940734863 -0.35546875
0.598214209079742432 -0.15625 -0.1484375
0.0714285746216773987 -0.222656235098838806 -0.382812529802322388
-0.178571432828903198 0.1796875 0.0859375
-0.0982142910361289978 0.2265625 0.06640625
-0.196428567171096802 -0.02734375 -0.24609375
-0.196428582072257996 -0.0455729179084300995 -0.234375
0.5 -0.2421875 -0.28515625
-0.151785716414451599 -0.19140625 -0.34375
-0.178571432828903198 -0.0859375074505805969 -0.26953125
0.553571522235870361 -0.1875 -0.1484375
-0.214285701513290405 -0.0429687462747097015 -0.2265625
-0.160714283585548401 0.06640625 -0.078125
-0.125 0.171875 0.0234375018626451492
-0.0803571417927742004 -0.2109375 -0.3515625
0.0178571436554193497 -0.2421875 -0.378906220197677612
-0.178571432828903198 -0.08203125 -0.265625
-0.0357142873108386993 -0.24609375 -0.36328125
0.571428656578063965 -0.12109375 -0.128906264901161194
-0.214285716414451599 0.07421875 -0.125
-0.321428567171096802 -0.117187492549419403 0.20703125
0.321428567171096802 -0.265624940395355225 -0.328124970197677612
-0.169642850756645203 0.234375 0.167968764901161194
-0.223214283585548401 -0.01953125 -0.2265625
0.392857134342193604 -0.265624970197677612 -0.328125
-0.223214283585548401 -0.0269417352974414825 -0.215487152338027954
0.535714328289031982 -0.207031264901161194 -0.188802078366279602
-0.0982142835855484009 0.1796875 0.01171875
0.401785701513290405 -0.2578125 -0.3046875
-0.223214283585548401 0.15625 0.13671875
-0.0357142873108386993 -0.234375014901161194 -0.359375
-0.366071432828903198 -0.1875 0.28515625
-0.116071432828903198 -0.1953125 -0.36328125
0.1071428582072258 -0.25 -0.375
0.508928596973419189 -0.243489593267440796 -0.238281235098838806
-0.133928567171096802 0.171875 0.046875
0.205357179045677185 -0.24609375 -0.3828125
-0.151785701513290405 0.23828125 0.13671875
0.571428596973419189 -0.20703125 -0.1640625
0.151785716414451599 -0.25 -0.37109375
-0.285714298486709595 -0.0859375074505805969 0.12109375
-0.169642850756645203 0.23828125 0.1640625
-0.0625 -0.230468764901161194 -0.37890625
0.267857134342193604 -0.26595798134803772 -0.341175168752670288
0.553571462631225586 -0.1953125 -0.1640625
0.339285701513290405 -0.265625 -0.34765625
-0.178571432828903198 -0.0729166567325592041 -0.268229156732559204
-0.0803571417927742004 -0.222656264901161194 -0.34765625
0.0267857145518064499 -0.21484375 -0.38671875
0.303571432828903198 -0.26953125 -0.3515625
-0.366071432828903198 -0.234375 0.34375
-0.25 0.0429687537252902985 0.0234375
0.232142850756645203 -0.23828125 -0.35546875
-0.1875 0.1796875 0.0859375
-0.294642895460128784 -0.09765625 0.118164055049419403
0.232142850756645203 -0.265514075756072998 -0.3515625
0.0357142873108386993 -0.234375 -0.390625
-0.1875 0.171875 0.09375
-0.267857134342193604 0.0195312481373548508 0.0615237131714820862
-0.0267857145518064499 -0.23828125 -0.359375
-0.267857134342193604 -0.078125 0.09765625
-0.107142865657806396 0.16015625 0.0009765625
0.544642806053161621 -0.25 -0.218750014901161194
-0.116071425378322601 0.1484375 0.0234375
-0.330357134342193604 -0.1328125 0.2265625
0.0446428582072257996 -0.234375 -0.3671875
-0.116071425378322601 0.23828125 0.09375
-0.160714268684387207 0.2421875 0.156249985098838806
-0.116071425378322601 0.12890625 -0.03125
-0.223214283585548401 -0.0256692524999380112 -0.222434327006340027
0.0178571436554193497 -0.2265625 -0.367187529802322388
-0.169642850756645203 0.07421875 -0.0820312649011611938
-0.160714283585548401 0.23828125 0.148437514901161194
0.196428582072257996 -0.23828125 -0.35546875
-0.258928567171096802 -0.046875 0.08203125
0.410714298486709595 -0.26171875 -0.33203125
-0.169642850756645203 0.234375 0.16015625
-0.3125 -0.13671875 0.21484375
-0.220334798097610474 0.0591307133436203003 -0.0403049774467945099
-0.258928567171096802 0.00390625 0.06640625
0.526785731315612793 -0.23046875 -0.2109375
-0.357142865657806396 -0.203125 0.316406220197677612
-0.25 0.0390625 -0.01171875
-0.366071432828903198 -0.183593764901161194 0.289062529802322388
-0.330357134342193604 -0.15625 0.234375
0.0625 -0.218749985098838806 -0.378906190395355225
-0.375 -0.23046875 0.347656220197677612
-0.375 -0.24609375 0.34375
-0.339285612106323242 -0.175781175494194031 0.234375
-0.366071432828903198 -0.22265625 0.3359375
-0.330357134342193604 -0.12890625 0.21484375
0.580357134342193604 -0.212239578366279602 -0.195312529802322388
-0.0803571417927742004 -0.222656279802322388 -0.378906190395355225
-0.178571432828903198 0.17578125 0.0859375
-0.267857134342193604 -0.03125 0.08203125
-0.258928567171096802 -0.03515625 0.08984375
-0.214285716414451599 0.0737452730536460876 -0.0720296651124954224
0.232142850756645203 -0.23828125 -0.35546875
0.151785731315612793 -0.242187514901161194 -0.359375
-0.196428552269935608 0.0625 -0.09375
0.0625 -0.21875 -0.3828125
0.455357134342193604 -0.26171875 -0.2890625
-0.125 -0.21484375 -0.359375029802322388
0.410884648561477661 -0.245528802275657654 -0.30409124493598938
-0.303571432828903198 -0.12109375 0.2109375
-0.0892857164144515991 0.1796875 0.0221354160457849503
0.339285701513290405 -0.250000029802322388 -0.3544921875
-0.214285716414451599 0.1640625 0.12109375
-0.321428567171096802 -0.15234375 0.23046875
-0.116071425378322601 0.1484375 -0.01171875
-0.339285701513290405 -0.17578125 0.24609375
-0.366071432828903198 -0.234374985098838806 0.343749970197677612
0.0892857164144515991 -0.22265625 -0.37109375
-0.3125 -0.113281257450580597 0.210937514901161194
-0.160714283585548401 0.23828125 0.136718779802322388
-0.303571432828903198 -0.09375 0.119791671633720398
-0.223214283585548401 0.0739421099424362183 -0.0764604955911636353
-0.303571432828903198 -0.102864585816860199 0.15625
0.383928567171096802 -0.2578125 -0.34765625
-0.0982142835855484009 0.140625 -0.046875
-0.160714268684387207 -0.13671875 -0.32039952278137207
0.571428656578063965 -0.199218764901161194 -0.15625
-0.267857134342193604 -0.0781249850988388062 0.09765625
0.232142850756645203 -0.23828125 -0.371093809604644775
-0.133928567171096802 -0.195312485098838806 -0.328125
-0.196428552269935608 -0.06640625 -0.27734375
0.544642925262451172 -0.2421875 -0.203125
-0.116071425378322601 0.23828125 0.09375
-0.205357134342193604 0.0898437425494194031 -0.0781250074505805969
-0.16964288055896759 -0.12890625 -0.32421875
-0.178571432828903198 -0.109375 -0.3125
-0.375 -0.23046875 0.3515625
-0.232142850756645203 0.04296875 -0.157552093267440796
-0.187499985098838806 -0.0585937462747097015 -0.269531220197677612
0.0892857164144515991 -0.22265625 -0.37109375
0.196428567171096802 -0.25 -0.3828125
-0.223214283585548401 0.0546875 -0.15234375
-0.178571432828903198 0.234375 0.171875
-0.1071428582072258 0.128906264901161194 -0.0351562462747097015
-0.214285716414451599 0.06640625 -0.13671875
0.544642865657806396 -0.191406264901161194 -0.1875
0.0446428582072257996 -0.218749970197677612 -0.37109375
-0.366071432828903198 -0.214843735098838806 0.32421875
-0.267857104539871216 -0.0117187481373548508 0.063802085816860199
0.0625 -0.222656264901161194 -0.371093779802322388
-0.213975235819816589 0.0661349296569824219 -0.0670229122042655945
-0.142857164144515991 0.18359375 0.0507812425494194031
-0.232142850756645203 0.06640625 -0.06640625
0.0357142873108386993 -0.21484375 -0.375000029802322388
-0.232142850756645203 0.04296875 -0.03125
-0.3125 -0.109375 0.16015625
-0.232142820954322815 0.04296875 -0.03125
0.160714283585548401 -0.2421875 -0.359374970197677612
0.214285716414451599 -0.234375 -0.37109375
-0.0892857089638710022 -0.23046875 -0.3671875
-0.294642865657806396 -0.078125 0.1171875
-0.196428596973419189 -0.015625 -0.234374970197677612
-0.142857149243354797 0.2421875 0.13671875
0.169642850756645203 -0.25390625 -0.37109375
-0.16964288055896759 -0.140624970197677612 -0.33203125
-0.125 0.13671875 -0.04296875
0.5625 -0.17578125 -0.13671875
0.571428596973419189 -0.2109375 -0.16796875
-0.241071432828903198 -0.07421875 -0.23828125
-0.330357134342193604 -0.15625 0.234375
-0.196428567171096802 -0.09375 -0.26953125
0.357142835855484009 -0.26171875 -0.363281220197677612
-0.187499985098838806 -0.12890625 -0.3203125
-0.0982142835855484009 0.16015625 0.0078125
-0.205357134342193604 -0.095052085816860199 -0.292968779802322388
-0.178571432828903198 -0.0976562425494194031 -0.296875
0.116071425378322601 -0.25 -0.37109375
-0.178571432828903198 0.234375 0.16796875
0.535714328289031982 -0.2421875 -0.25390625
-0.107142850756645203 0.2109375 0.0539062507450580597
0.5625 -0.2265625 -0.183593720197677612
-0.178571432828903198 -0.100931569933891296 -0.279764086008071899
-0.303571462631225586 -0.1015625 0.167968764901161194
-0.375 -0.23828125 0.33984375
-0.303571403026580811 -0.08203125 0.117187492549419403
0.214285716414451599 -0.24609375 -0.3515625
-0.107142850756645203 0.140625 -0.015625
0.0267857145518064499 -0.23046875 -0.3671875
-0.330357134342193604 -0.14453125 0.22265625
-0.375000029802322388 -0.21875 0.33203125
-0.116071432828903198 0.234375 0.0703125
0.598214268684387207 -0.167968764901161194 -0.15625
-0.223214283585548401 0.05078125 -0.02734375
-0.0893739759922027588 -0.223076149821281433 -0.375689566135406494
-0.214285716414451599 0.1640625 0.121093757450580597
-0.339285701513290405 -0.18359375 0.25
-0.241071432828903198 0.0585937537252902985 -0.03515625
-0.178571432828903198 -0.10546875 -0.308593809604644775
-0.357142865657806396 -0.1875 0.28515625
0.0267857145518064499 -0.23046875 -0.3671875
-0.223214283585548401 -0.0234375 -0.2265625
-0.366071432828903198 -0.22265625 0.328125
-0.0803571268916130066 -0.22265625 -0.37890625
0.607142865657806396 -0.132812514901161194 -0.12890625
0.196428567171096802 -0.23046875 -0.3671875
0.508928596973419189 -0.238281264901161194 -0.2265625
-0.223214283585548401 0.0585937462747097015 -0.046875
-0.217584729194641113 0.051801193505525589 -0.0767414048314094543
-0.276785671710968018 -0.0742187649011611938 0.0898437649011611938
-0.357142865657806396 -0.1953125 0.30859375
0.151785701513290405 -0.25 -0.382812470197677612
-0.267857134342193604 -0.015625 0.0625
-0.089285723865032196 0.21875 0.0507795661687850952
-0.178571432828903198 -0.0898437425494194031 -0.279511868953704834
-0.294642865657806396 -0.0937499850988388062 0.148437514901161194
-0.366071432828903198 -0.19140625 0.30078125
0.232142850756645203 -0.26171875 -0.3515625
-0.223214283585548401 0.0625 -0.08203125
0.169642850756645203 -0.24609375 -0.38671875
-0.214285716414451599 0.0859375 -0.09375
-0.241071432828903198 0.0546875 -0.015625
0.0625 -0.2265625 -0.367187529802322388
0.580357134342193604 -0.218750014901161194 -0.20703125
-0.125 -0.203125 -0.36328125
-0.303571432828903198 -0.1015625 0.12890625
-0.196428567171096802 -0.12109375 -0.289062470197677612
0.3125 -0.269531279802322388 -0.34375
-0.196428567171096802 0.0859375 -0.0742187574505805969
-0.178571432828903198 -0.15686643123626709 -0.334279239177703857
-0.151785716414451599 0.23828125 0.13671875
-0.151785716414451599 -0.17578125 -0.3515625
0.251678675413131714 -0.261643469333648682 -0.360792338848114014
-0.357142865657806396 -0.18359375 0.265625
-0.0982142835855484009 -0.19921875 -0.3515625
-0.1875 0.18359375 0.09375
0.544642865657806396 -0.203125 -0.1953125
0.571428596973419189 -0.114583328366279602 -0.12890625
-0.0714285746216773987 -0.23046875 -0.37890625
-0.366071432828903198 -0.18359375 0.296875
-0.1875 0.175781264901161194 0.0976562649011611938
-0.160714283585548401 -0.16796875 -0.3203125
-0.0982142835855484009 0.222656264901161194 0.0546874962747097015
-0.375 -0.23046875 0.33984375
0.482142865657806396 -0.25390625 -0.29296875
-0.133928567171096802 -0.1953125 -0.328125
-0.0892857164144515991 0.159185066819190979 -0.015625
-0.214285716414451599 0.0195312462747097015 -0.191406235098838806
-0.223214283585548401 0.16796875 0.125
0.5625 -0.167968764901161194 -0.164062514901161194
-0.0446428582072257996 -0.21875 -0.36328125
-0.357142865657806396 -0.1953125 0.3125
0.428571432828903198 -0.24609375 -0.3203125
-0.133928567171096802 0.17578125 0.05078125
-0.223214283585548401 0.16015625 0.14453125
-0.241071432828903198 0.05859375 -0.02734375
0.553571403026580811 -0.125 -0.12109375
-0.294642865657806396 -0.09375 0.14453125
-0.294642865657806396 -0.0937499925494194031 0.140624985098838806
0.294642865657806396 -0.242187485098838806 -0.3525390625
-0.196428567171096802 2.60361827583710514e-12 -0.18359375
-0.178571432828903198 -0.0898437350988388062 -0.26953125
-0.214285716414451599 0.1640625 0.12109375
-0.169642850756645203 -0.16015625 -0.33984375
-0.0803571417927742004 -0.2265625 -0.37890625
0.0803571417927742004 -0.22265625 -0.38671875
0.0803571417927742004 -0.24606892466545105 -0.375
-0.223214283585548401 -0.01953125 -0.19921875
-0.312500029802322388 -0.109375 0.210937485098838806
-0.214285731315612793 0.0234375018626451492 -0.183593735098838806
0.187500029802322388 -0.25 -0.3828125
-0.214285716414451599 -0.09765625 -0.28515625
-0.133928567171096802 0.2421875 0.09765625
-0.196428552269935608 0.0343749970197677612 -0.151562497019767761
-0.223214298486709595 0.16796875 0.125
-0.205357149243354797 0.05078125 -0.15625
-0.205357149243354797 0.16796875 0.10546875
-0.214285716414451599 0.16015625 0.13671875
-0.232142835855484009 -0.00390625 -0.1953125
0.0446428582072257996 -0.23828125 -0.37109375
0.25 -0.252411723136901855 -0.376208186149597168
0.0178571436554193497 -0.2421875 -0.382812529802322388
0.151785716414451599 -0.24609375 -0.359375
0.571428656578063965 -0.21484375 -0.179687485098838806
-0.339285701513290405 -0.15625 0.23046875
-0.375 -0.23046875 0.3515625
0.196428537368774414 -0.23828125 -0.35546875
0.0446428544819355011 -0.238281264901161194 -0.37109375
-0.232142850756645203 0.062855355441570282 -0.122891686856746674
-0.3125 -0.105468764901161194 0.1796875
-0.196428582072257996 0.00390625 -0.203125
0.544642806053161621 -0.1953125 -0.18359375
-0.00892857182770967484 -0.2421875 -0.37109375
-0.1071428582072258 0.21875 0.0468750037252902985
0.0446428582072257996 -0.2265625 -0.3671875
-0.303571432828903198 -0.105468757450580597 0.140625014901161194
0.553571403026580811 -0.214843735098838806 -0.21875
0.553574860095977783 -0.195317447185516357 -0.164062976837158203
