ply
format ascii 1.0
element vertex 1003
comment vertices
property float x
property float y
property float z
end_header
0.455357134342193604 -0.0859375 -0.109375
-0.348214298486709595 -0.0351562462747097015 -0.39453125
-0.375000089406967163 0.0156249785795807838 -0.406249940395355225
0.392857134342193604 -0.128906235098838806 -0.2265625
0.0803571417927742004 -0.15234375 -0.4296875
-0.0267857145518064499 -0.1171875 -0.42578125
-0.0267857164144515991 -0.11328125 -0.417968720197677612
-0.0178571436554193497 -0.11328125 -0.4140625
0.241071432828903198 -0.167968735098838806 -0.3828125
0.0535714291036128998 -0.132812470197677612 -0.42578125
0.366071432828903198 -0.109374985098838806 -0.250000029802322388
-0.151785716414451599 -0.11328125 -0.4140625
0.214285716414451599 -0.15625 -0.3984375
-0.0714285746216773987 -0.109375 -0.41015625
-0.0982142835855484009 -0.10546875 -0.41015625
0.00892857182770967484 -0.1328125 -0.421875
-0.383928567171096802 0.0273437518626451492 -0.38671875
0.321428537368774414 -0.152343735098838806 -0.2890625
0.178571417927742004 -0.15625 -0.41015625
0.357142865657806396 -0.1328125 -0.30078125
0.410714238882064819 -0.125 -0.2265625
0.133928567171096802 -0.148437485098838806 -0.42578125
-0.366071432828903198 0.0546875 -0.3828125
0.455357134342193604 -0.08984375 -0.128906264901161194
-0.0625 -0.125 -0.4296875
-0.0178571436554193497 -0.128906279802322388 -0.40625
-0.0803571417927742004 -0.109375 -0.42578125
0.4375 -0.0937500074505805969 -0.12109375
0.0892857164144515991 -0.140625 -0.410156220197677612
-0.339285701513290405 -0.046875 -0.40234375
-0.178571432828903198 -0.08984375 -0.43359375
0.375 -0.11328125 -0.25390625
0.383928567171096802 -0.125 -0.269531279802322388
-0.196428567171096802 -0.1015625 -0.4140625
0.258928567171096802 -0.1640625 -0.37890625
0.383928567171096802 -0.121093735098838806 -0.21875
0.0714285746216773987 -0.15625 -0.421875059604644775
0.1071428582072258 -0.1484375 -0.42578125
-0.00892857182770967484 -0.12890625 -0.4140625
-0.169642850756645203 -0.109375 -0.4140625
0.312500029802322388 -0.140624985098838806 -0.328125
0.0803571417927742004 -0.1484375 -0.4296875
-0.0535714291036128998 -0.109375 -0.414062470197677612
0.383928596973419189 -0.10546875 -0.23828125
0.178571432828903198 -0.15234375 -0.38671875
0.410714268684387207 -0.0859375 -0.141926273703575134
-0.205357134342193604 -0.109375 -0.4140625
-0.375 0.04296875 -0.382812470197677612
0.4375 -0.07421875 -0.1015625
0.401785671710968018 -0.0976562350988388062 -0.164062514901161194
0.196428582072257996 -0.171875 -0.3828125
-0.232142850756645203 -0.10546875 -0.421875
0.0892857164144515991 -0.14453125 -0.40625
-0.330357134342193604 -0.0351574309170246124 -0.398436009883880615
-0.205357134342193604 -0.09765625 -0.41015625
0.357142865657806396 -0.1171875 -0.2734375
-0.0892857164144515991 -0.1015625 -0.4296875
-0.0446428544819355011 -0.109375014901161194 -0.425781011581420898
0.169642850756645203 -0.171875 -0.39453125
0.321428567171096802 -0.1328125 -0.296874970197677612
-0.0803571417927742004 -0.109375 -0.41015625
-0.160714283585548401 -0.105468757450580597 -0.4140625
-0.116071425378322601 -0.09765625 -0.421875
-0.196428567171096802 -0.0859375 -0.417968690395355225
0.214285716414451599 -0.16796875 -0.371093720197677612
-0.330357134342193604 -0.01953125 -0.39453125
-0.0982142835855484009 -0.12109375 -0.421875
-0.214285701513290405 -0.0820312052965164185 -0.414062529802322388
0.214285716414451599 -0.16796875 -0.37109375
-0.00892857182770967484 -0.12890625 -0.4140625
0.375 -0.11328125 -0.26171875
0.419642895460128784 -0.1171875 -0.199218764901161194
-0.401785731315612793 0.0429687537252902985 -0.3984375
0.214285716414451599 -0.1640625 -0.3984375
0.1071428582072258 -0.1640625 -0.41796875
-0.375 0.0296874996274709702 -0.406249970197677612
-0.267857134342193604 -0.1015625 -0.4140625
0.392857104539871216 -0.0976562723517417908 -0.199218705296516418
0.241071447730064392 -0.15234375 -0.37890625
-0.0982142835855484009 -0.0976562425494194031 -0.42578125
-0.375000029802322388 0.015625 -0.386718720197677612
0.125 -0.16796875 -0.414062470197677612
-0.187500014901161194 -0.109375 -0.423177063465118408
0.348214298486709595 -0.15625 -0.285156279802322388
0.330357134342193604 -0.16015625 -0.3046875
-0.357142865657806396 0.1328125 -0.324218720197677612
0.241071417927742004 -0.16796875 -0.359375
0.0446428582072257996 -0.1328125 -0.421875
0.205357149243354797 -0.15234375 -0.37890625
0.00892857275903224945 -0.1328125 -0.421875
0.428571432828903198 -0.101562507450580597 -0.1953125
-0.0267857145518064499 -0.125 -0.41015625
0.357142895460128784 -0.12109375 -0.23828125
-0.267857134342193604 -0.0859375074505805969 -0.40234375
0.348215609788894653 -0.14453125 -0.26171875
-0.392857134342193604 0.05078125 -0.386718779802322388
0.196428552269935608 -0.171875 -0.3828125
-0.0267857145518064499 -0.125 -0.41015625
-0.223214283585548401 -0.105468757450580597 -0.4140625
0.303571432828903198 -0.1640625 -0.328125029802322388
0.267857134342193604 -0.171874970197677612 -0.36328125
0.142857149243354797 -0.16015625 -0.40234375
-0.0178571436554193497 -0.128906220197677612 -0.42578125
-0.0357142873108386993 -0.1328125 -0.41796875
0.205357149243354797 -0.17578125 -0.38671875
0.267857134342193604 -0.16796875 -0.37109375
0.116071425378322601 -0.16015625 -0.42578125
-0.0803571417927742004 -0.10546875 -0.414062559604644775
0.401785731315612793 -0.0859375 -0.1796875
-0.375000029802322388 0.128906264901161194 -0.3046875
-0.223214283585548401 -0.09375 -0.41015625
-0.366071432828903198 0.06640625 -0.390625
0.375 -0.109375007450580597 -0.20703125
0.0178571417927742004 -0.124999985098838806 -0.4375
0.0803571417927742004 -0.140625 -0.41015625
-0.0892857164144515991 -0.11328125 -0.41015625
0.25 -0.1640625 -0.3515625
-0.125 -0.11328125 -0.43359375
-0.357142865657806396 0.0234376098960638046 -0.40234375
0.0446428582072257996 -0.1328125 -0.421875
0.357142835855484009 -0.12890625 -0.29296875
0.392857164144515991 -0.117187492549419403 -0.2421875
0.348214298486709595 -0.15625 -0.28515625
0.0892857164144515991 -0.135945558547973633 -0.419469505548477173
-0.383928567171096802 0.03125 -0.390625
-8.14569928436065238e-13 -0.12890625 -0.4375
0.383928567171096802 -0.10546875 -0.23828125
-0.178571432828903198 -0.109375 -0.42578125
0.178571432828903198 -0.15234375 -0.390625
0.116071425378322601 -0.14453125 -0.41015625
0.0357142873108386993 -0.13671875 -0.44140625
0.178571432828903198 -0.1484375 -0.3984375
-0.151785716414451599 -0.1171875 -0.41796875
-0.375 0.0859375 -0.3671875
-0.375 0.0234374981373548508 -0.386718720197677612
0.383928567171096802 -0.1015625 -0.230468764901161194
0.312500029802322388 -0.15234375 -0.294270843267440796
-0.285714298486709595 -0.0859375 -0.41015625
0.339285701513290405 -0.15625 -0.28515625
-0.116071417927742004 -0.1171875 -0.43359375
0.160714283585548401 -0.1484375 -0.406250029802322388
0.178571447730064392 -0.171875 -0.41015625
0.383928626775741577 -0.1240234375 -0.2646484375
-0.375205934047698975 0.0547888241708278656 -0.378843456506729126
-0.366071432828903198 0.12109375 -0.335937470197677612
0.401785701513290405 -0.12109375 -0.242187485098838806
-0.366071432828903198 0.015625 -0.40234375
0.0803571417927742004 -0.148437485098838806 -0.4296875
0.4375 -0.0791015625 -0.15625
-0.142857164144515991 -0.1015625 -0.4140625
-0.142857134342193604 -0.101562492549419403 -0.43359375
-0.366071432828903198 0.01953125 -0.3828125
-0.330357134342193604 -0.0585937537252902985 -0.38671875
-0.196428567171096802 -0.10546875 -0.43359375
-0.366071403026580811 0.08984375 -0.359375
0.357142865657806396 -0.125 -0.2890625
0.330357134342193604 -0.16015625 -0.31640625
-0.098214268684387207 -0.09765625 -0.42578125
0.214285716414451599 -0.1640625 -0.398437529802322388
-0.25 -0.09375 -0.41796875
0.455357134342193604 -0.03125 -0.09765625
-0.357142865657806396 -0.01953125 -0.390625
-0.330357134342193604 -0.01953125 -0.39453125
0.0357142873108386993 -0.140625 -0.437499970197677612
0.446428567171096802 -0.0302734393626451492 -0.0859375
-0.0357142835855484009 -0.11328125 -0.410156220197677612
0.294673562049865723 -0.141406282782554626 -0.332031220197677612
0.223214283585548401 -0.16015625 -0.38671875
-0.133928567171096802 -0.1015625 -0.41796875
0.357142865657806396 -0.125 -0.2890625
0.366071492433547974 -0.140625 -0.24609375
0.160714283585548401 -0.15625 -0.41796875
0.321428567171096802 -0.1640625 -0.312500029802322388
0.0089285699650645256 -0.140625 -0.4296875
-0.0982142835855484009 -0.10546875 -0.4296875
-0.0535714291036128998 -0.1171875 -0.410156309604644775
0.375 -0.1171875 -0.21484375
0.0892857164144515991 -0.16015625 -0.421875
0.419642865657806396 -0.113281242549419403 -0.191406220197677612
-0.205357149243354797 -0.105468742549419403 -0.41015625
1.14573628362535374e-12 -0.140625 -0.44140625
0.169642865657806396 -0.156249970197677612 -0.41796875
-0.160714283585548401 -0.109375 -0.4375
0.241071432828903198 -0.16796875 -0.38671875
-0.0982142835855484009 -0.105468757450580597 -0.41015625
-0.401785701513290405 0.0429687686264514923 -0.390625
-0.0714285746216773987 -0.10546875 -0.41796875
0.0535714291036128998 -0.152343764901161194 -0.43359375
0.401785671710968018 -0.1015625 -0.21875
-0.196428552269935608 -0.1015625 -0.43359375
-0.0714285746216773987 -0.121093764901161194 -0.4296875
0.33928564190864563 -0.12890625 -0.27734375
0.098214276134967804 -0.15234375 -0.425781279802322388
0.267857104539871216 -0.171875 -0.35546875
-0.214285716414451599 -0.0859375 -0.421875
0.1071428582072258 -0.15625 -0.40625
0.1071428582072258 -0.16015625 -0.40625
-0.0982142910361289978 -0.12109375 -0.421875
-0.169642850756645203 -0.109375 -0.4296875
0.116071425378322601 -0.144531235098838806 -0.421875
-0.205357179045677185 -0.109375 -0.4140625
0.348214328289031982 -0.12890625 -0.296875059604644775
0.0803571268916130066 -0.1484375 -0.4296875
0.437500029802322388 -0.0708934664726257324 -0.0980144590139389038
0.0535714291036128998 -0.15234375 -0.421875
-0.401785701513290405 0.04296875 -0.3984375
0.410714298486709595 -0.102864578366279602 -0.1640625
0.258928537368774414 -0.1640625 -0.37890625
0.214285716414451599 -0.15625 -0.386718720197677612
0.0357142873108386993 -0.1328125 -0.441406279802322388
0.357142865657806396 -0.148437514901161194 -0.29296875
0.258928418159484863 -0.15234375 -0.3671875
-0.160714313387870789 -0.0898437350988388062 -0.421875
-0.196428582072257996 -0.1015625 -0.43359375
0.205357149243354797 -0.167968764901161194 -0.375
-0.0714285746216773987 -0.117187492549419403 -0.41015625
0.410714268684387207 -0.09765625 -0.145507797598838806
-0.3125 -0.07421875 -0.390625
-0.125 -0.11328125 -0.43359375
0.0892857164144515991 -0.14453125 -0.42578125
0.125 -0.179687529802322388 -0.41015625
0.178571432828903198 -0.1484375 -0.40625
-0.214285716414451599 -0.0859375 -0.4140625
-0.0625000074505805969 -0.128906264901161194 -0.421875
0.410714238882064819 -0.0859375 -0.183593764901161194
0.321428567171096802 -0.1484375 -0.2890625
0.267857134342193604 -0.156249985098838806 -0.375
-0.151785716414451599 -0.09375 -0.4296875
0.357142895460128784 -0.13671875 -0.2421875
0.312499970197677612 -0.160156235098838806 -0.30078125
-0.0178571436554193497 -0.125 -0.4296875
0.00892857182770967484 -0.125 -0.441406279802322388
0.267857134342193604 -0.16796875 -0.3515625
-0.214285716414451599 -0.09375 -0.4296875
-0.089285723865032196 -0.125 -0.421875
-0.151785716414451599 -0.117187492549419403 -0.42578125
-0.0446428582072257996 -0.1171875 -0.40625
-0.0535714291036128998 -0.125 -0.40625
0.196428596973419189 -0.16796875 -0.40625
0.455357134342193604 -0.0859374925494194031 -0.1171875
0.178571432828903198 -0.15625 -0.41015625
0.401785671710968018 -0.125 -0.23828125
-0.0178571399301290512 -0.125 -0.4296875
9.34458782055058723e-13 -0.140625 -0.43359375
0.214285716414451599 -0.156249985098838806 -0.382812470197677612
-0.232142850756645203 -0.0859374850988388062 -0.421875029802322388
0.392857134342193604 -0.121093757450580597 -0.198437497019767761
0.321428567171096802 -0.1484375 -0.33203125
-0.366071432828903198 0.0625 -0.39453125
0.330357104539871216 -0.13671875 -0.277372986078262329
-0.169642850756645203 -0.113281242549419403 -0.42578125
-0.366071432828903198 0.078125 -0.375
0.294642865657806396 -0.16796875 -0.335937529802322388
-0.0892857164144515991 -0.117187507450580597 -0.4296875
0.383928567171096802 -0.125 -0.2265625
0.205357149243354797 -0.15234375 -0.39453125
0.303571432828903198 -0.1640625 -0.32421875
-0.357009917497634888 0.120114631950855255 -0.321309953927993774
-0.321428567171096802 -0.0664062350988388062 -0.390625
-0.374999970197677612 0.0703125074505805969 -0.3671875
-0.0714285671710968018 -0.1171875 -0.41015625
-0.0535714328289031982 -0.117187492549419403 -0.41015625
0.00892857182770967484 -0.125 -0.441406220197677612
-0.250000029802322388 -0.0976562425494194031 -0.42578125
0.401785701513290405 -0.091145835816860199 -0.179687485098838806
-0.0178571436554193497 -0.1328125 -0.421875
0.00892857275903224945 -0.125 -0.44140625
-0.0625 -0.109375007450580597 -0.42578125
0.357142865657806396 -0.117187492549419403 -0.2734375
0.169642850756645203 -0.171875 -0.39453125
-0.1071428582072258 -0.12109375 -0.42578125
0.0357142873108386993 -0.1328125 -0.421875
0.0453790910542011261 -0.136708647012710571 -0.416826903820037842
0.0267857145518064499 -0.12890625 -0.44140625
-0.383928567171096802 0.0703125 -0.3828125
-0.196428567171096802 -0.109375 -0.42578125
0.321428507566452026 -0.1640625 -0.303710848093032837
-0.125 -0.12109375 -0.421875
0.437500029802322388 -0.0937500074505805969 -0.12890625
-0.0178571436554193497 -0.12890625 -0.40625
0.125 -0.14453125 -0.414062470197677612
-0.348214298486709595 -0.0390625 -0.390625
-0.214285731315612793 -0.08203125 -0.41796875
0.303571522235870361 -0.139322921633720398 -0.3203125
0.196428567171096802 -0.16796875 -0.40625
0.446428567171096802 -0.0703125 -0.0976562425494194031
-0.116071425378322601 -0.09765625 -0.421875
-0.0625 -0.12890625 -0.421875
-0.366071432828903198 0.10546875 -0.33984375
-1.29300064578841134e-12 -0.121093742549419403 -0.4375
0.25 -0.160156235098838806 -0.3515625
-2.79818464406222933e-12 -0.13671875 -0.441406220197677612
-0.0446428582072257996 -0.109374992549419403 -0.41796875
0.151785716414451599 -0.15234375 -0.414062529802322388
0.0625 -0.1328125 -0.42578125
-0.0535714291036128998 -0.125 -0.40625
0.0714285671710968018 -0.13671875 -0.410156190395355225
-0.396976441144943237 0.077997453510761261 -0.37109375
0.232142806053161621 -0.16796875 -0.37109375
0.4375 -0.0976562425494194031 -0.16796875
-0.321428537368774414 -0.0361326895654201508 -0.390625
0.178571432828903198 -0.171875 -0.39453125
-0.383928596973419189 0.0664062425494194031 -0.37109375
-0.25 -0.09765625 -0.4140625
0.374999970197677612 -0.125 -0.2734375
-0.133928552269935608 -0.1171875 -0.41796875
-0.366071432828903198 0.08984375 -0.37890625
-0.0982142910361289978 -0.121093742549419403 -0.421875
-0.0982142835855484009 -0.11328125 -0.43359375
-0.375 0.117187492549419403 -0.34375
0.392857134342193604 -0.125 -0.207031264901161194
-0.357142835855484009 -0.00390625046566128731 -0.38671875
0.4375 -0.10546875 -0.152343735098838806
-0.375 0.117187485098838806 -0.34375
0.125 -0.14453125 -0.4140625
0.0357142873108386993 -0.14453125 -0.42578125
-0.169642835855484009 -0.11328125 -0.421875
-0.375 0.12109375 -0.320312440395355225
-0.0178571436554193497 -0.12890625 -0.42578125
0.392857104539871216 -0.09765625 -0.191406220197677612
0.214285716414451599 -0.15625 -0.37890625
0.0446428582072257996 -0.15234375 -0.4296875
0.464285701513290405 -0.0546874962747097015 -0.0859375
-0.0714285820722579956 -0.11328125 -0.4296875
-0.0892857164144515991 -0.109375 -0.4296875
-0.383928567171096802 0.11328125 -0.34375
0.392857134342193604 -0.10546875 -0.23046875
-0.392857134342193604 0.04296875 -0.40234375
-0.366071432828903198 0.08203125 -0.3671875
-0.089285731315612793 -0.1171875 -0.41015625
-0.383928567171096802 0.03125 -0.390625
0.0625000074505805969 -0.140625 -0.414062440395355225
0.303571432828903198 -0.156249985098838806 -0.316406309604644775
-0.169642865657806396 -0.109375 -0.43359375
0.0714285746216773987 -0.15234375 -0.429687529802322388
0.428571432828903198 -0.0859375149011611938 -0.17578125
-0.339285731315612793 -0.05859375 -0.39453125
0.232142850756645203 -0.16796875 -0.38671875
-0.232142850756645203 -0.0898437574505805969 -0.414062529802322388
0.241071447730064392 -0.15234375 -0.371093779802322388
-0.0267857145518064499 -0.1328125 -0.41796875
-0.0267857145518064499 -0.109374992549419403 -0.4140625
0.328201711177825928 -0.149788901209831238 -0.276890724897384644
-0.357142865657806396 0.0117187481373548508 -0.390625029802322388
0.0267857145518064499 -0.14453125 -0.429687529802322388
-0.375000029802322388 0.136718735098838806 -0.31640625
-0.375 0.0390625037252902985 -0.382812470197677612
0.357142865657806396 -0.136718735098838806 -0.25
0.0803571417927742004 -0.16015625 -0.4296875
-0.357142865657806396 -0.0195312481373548508 -0.390625
0.419642895460128784 -0.11328125 -0.171874985098838806
-0.116071425378322601 -0.1171875 -0.43359375
-0.285714298486709595 -0.0703125 -0.406249970197677612
-0.0982142835855484009 -0.121093742549419403 -0.421875
-0.294642865657806396 -0.0745019540190696716 -0.407568126916885376
0.0862866193056106567 -0.131259158253669739 -0.429938644170761108
0.241071432828903198 -0.1640625 -0.390625
0.312508910894393921 -0.167968720197677612 -0.317708343267440796
0.464285731315612793 -0.0195304136723279953 -0.104166701436042786
0.330357134342193604 -0.1328125 -0.285148173570632935
0.0714285746216773987 -0.136718735098838806 -0.421875
0.357142865657806396 -0.136718735098838806 -0.2421875
-0.116071425378322601 -0.09765625 -0.421875
0.214285731315612793 -0.17578125 -0.37890625
0.0357142873108386993 -0.148437514901161194 -0.4296875
0.0357142873108386993 -0.1484375 -0.43359375
0.178571432828903198 -0.171875 -0.41015625
0.3125 -0.13671875 -0.3125
0.410714298486709595 -0.12109375 -0.198107898235321045
-0.169642850756645203 -0.1015625 -0.43359375
0.0596924461424350739 -0.136810913681983948 -0.430652409791946411
0.419642835855484009 -0.11328125 -0.167968720197677612
0.276785701513290405 -0.162499994039535522 -0.37109375
-0.0714372098445892334 -0.12890625 -0.41796875
0.348214298486709595 -0.1484375 -0.3125
0.267857134342193604 -0.15625 -0.34765625
0.464285701513290405 -0.0171883907169103622 -0.0953132957220077515
0.4375 -0.0703125 -0.142968758940696716
0.419642865657806396 -0.101562485098838806 -0.14453125
0.196428552269935608 -0.15625 -0.402343809604644775
0.1071428582072258 -0.16015625 -0.410156220197677612
-0.107142873108386993 -0.1171875 -0.4140625
-0.0803571417927742004 -0.125 -0.417968779802322388
0.133928567171096802 -0.1484375 -0.41015625
-0.232142865657806396 -0.0859375 -0.421875
0.4375 -0.078125 -0.15234375
0.0357142873108386993 -0.12890625 -0.433593779802322388
-0.251136034727096558 -0.0981243550777435303 -0.421364575624465942
0.160714283585548401 -0.1484375 -0.414062529802322388
-0.196428567171096802 -0.1015625 -0.4140625
0.267857134342193604 -0.164062485098838806 -0.375
0.160714283585548401 -0.15234375 -0.41796875
0.464285701513290405 -0.015625 -0.0796875059604644775
-0.205357134342193604 -0.105468757450580597 -0.41015625
-0.366071432828903198 0.09375 -0.375000059604644775
-0.25 -0.09765625 -0.4140625
-0.375 0.0546875 -0.3984375
-0.312500029802322388 -0.05859375 -0.397135406732559204
-0.357142865657806396 0.108693748712539673 -0.338694304227828979
0.133928552269935608 -0.1640625 -0.421875
0.0803571492433547974 -0.140625014901161194 -0.4296875
0.0982142835855484009 -0.156250014901161194 -0.421875
-0.357142895460128784 -0.015625 -0.390625
0.383928567171096802 -0.101562514901161194 -0.2109375
-0.321428567171096802 -0.05078125 -0.390625059604644775
-0.160714283585548401 -0.08984375 -0.42578125
-0.357142865657806396 0.140516340732574463 -0.294501841068267822
0.0357142873108386993 -0.125 -0.43359375
0.169642850756645203 -0.15234375 -0.390625
0.366071432828903198 -0.1171875 -0.25
0.0446428582072257996 -0.15234375 -0.42578125
0.116071425378322601 -0.1640625 -0.41796875
0.00892857182770967484 -0.140625 -0.43359375
0.4375 -0.1015625 -0.13671875
-0.169642850756645203 -0.109374992549419403 -0.414062529802322388
-0.383928567171096802 0.0546875 -0.394531220197677612
-0.0625 -0.109375 -0.42578125
0.178571432828903198 -0.15234375 -0.38671875
-0.133928567171096802 -0.09765625 -0.421875
0.142857149243354797 -0.160156235098838806 -0.425781279802322388
-0.1071428582072258 -0.1015625 -0.417968690395355225
0.0535714291036128998 -0.15234375 -0.43359375
-0.392857134342193604 0.03515625 -0.395833343267440796
-0.089285731315612793 -0.1015625 -0.41796875
0.205357149243354797 -0.171875 -0.375
-0.0982142910361289978 -0.109375 -0.433593720197677612
0.446428596973419189 -0.0195312481373548508 -0.109375
-0.0892857164144515991 -0.109375 -0.41015625
-0.267857134342193604 -0.07421875 -0.4140625
0.410714298486709595 -0.0859375 -0.187499985098838806
-0.0089285699650645256 -0.12890625 -0.410156190395355225
0.321428567171096802 -0.14453125 -0.281249940395355225
0.455357134342193604 -0.0701715797185897827 -0.0937037244439125061
-0.0892857164144515991 -0.125 -0.421875
0.428571432828903198 -0.10546875 -0.1953125
-0.0892857089638710022 -0.125 -0.41796875
-0.214285716414451599 -0.09375 -0.4296875
-0.0892857164144515991 -0.1015625 -0.429687529802322388
-0.214285716414451599 -0.09375 -0.4296875
0.339285701513290405 -0.1328125 -0.2734375
0.1875 -0.15234375 -0.38671875
0.151785716414451599 -0.1640625 -0.40234375
0.125 -0.16796875 -0.41015625
0.419642865657806396 -0.08984375 -0.1875
-0.375 0.106096923351287842 -0.356749892234802246
0.241071447730064392 -0.15625 -0.359375
-0.169642850756645203 -0.11328125 -0.425781220197677612
-0.00892857182770967484 -0.125 -0.40625
-0.375 0.1171875 -0.34375
-0.366071432828903198 0.0742187425494194031 -0.38671875
-0.0267857145518064499 -0.12890625 -0.41015625
0.410714298486709595 -0.09765625 -0.20703125
-0.0714285746216773987 -0.11328125 -0.4296875
-0.348214298486709595 -0.00390625 -0.40625
-0.379121750593185425 0.0264605246484279633 -0.421293765306472778
-0.142857149243354797 -0.09765625 -0.4296875
0.00892857275903224945 -0.13671875 -0.44140625
-0.357142865657806396 -0.02734375 -0.40234375
-0.0982142835855484009 -0.1015625 -0.41796875
-0.375 0.1328125 -0.296223938465118408
-0.116071425378322601 -0.1171875 -0.43359375
0.401785701513290405 -0.09375 -0.17578125
0.428571462631225586 -0.0703125223517417908 -0.101561993360519409
-0.178571432828903198 -0.10546875 -0.43359375
0.276785701513290405 -0.15625 -0.3671875
-0.366071403026580811 0.02734375 -0.3984375
0.0892857164144515991 -0.16015625 -0.41796875
-0.0446428582072257996 -0.132812514901161194 -0.421875
-0.00892857182770967484 -0.125 -0.414062529802322388
-0.366071403026580811 0.125 -0.300781220197677612
-0.232142820954322815 -0.10546875 -0.421874970197677612
-0.0535714291036128998 -0.125 -0.40625
0.366071432828903198 -0.10546875 -0.23046875
-0.392857134342193604 0.0742187425494194031 -0.386718690395355225
0.169642850756645203 -0.15234375 -0.39453125
0.142857149243354797 -0.16796875 -0.41796875
0.0803571417927742004 -0.13671875 -0.42578125
0.428571432828903198 -0.0742187574505805969 -0.109375
-0.339285701513290405 -0.03515625 -0.38671875
0.348214298486709595 -0.15625 -0.28515625
0.294642865657806396 -0.157031252980232239 -0.32265627384185791
-0.357142865657806396 0.106182970106601715 -0.348069489002227783
-0.00892854668200016022 -0.13671875 -0.42578125
0.419642865657806396 -0.0820312574505805969 -0.175781235098838806
-0.116071425378322601 -0.109375 -0.4140625
0.400475203990936279 -0.120776094496250153 -0.219157680869102478
0.312500029802322388 -0.16015625 -0.347656279802322388
-0.205357149243354797 -0.10546875 -0.43359375
-0.0803571343421936035 -0.125 -0.41796875
0.375 -0.125 -0.22265625
-0.1071428582072258 -0.121583625674247742 -0.417936652898788452
-0.0892857164144515991 -0.109375 -0.43359375
0.321428596973419189 -0.1484375 -0.28515625
-0.0446428582072257996 -0.109375 -0.421875
-0.116071432828903198 -0.109375 -0.4140625
0.455357134342193604 -0.078125 -0.1328125
-0.348214328289031982 -0.04296875 -0.39453125
0.0357142873108386993 -0.12890625 -0.433593720197677612
0.196428567171096802 -0.16796875 -0.37890625
0.0357142873108386993 -0.140625029802322388 -0.421875
-0.142857149243354797 -0.09765625 -0.4296875
-0.358528345823287964 0.0944464802742004395 -0.371808439493179321
0.366071432828903198 -0.109375 -0.214843764901161194
0.267857134342193604 -0.171875014901161194 -0.367187529802322388
-0.348214298486709595 -0.0390625037252902985 -0.394531279802322388
0.267857134342193604 -0.15234375 -0.3671875
-0.116071425378322601 -0.117187514901161194 -0.421875
0.419642865657806396 -0.09375 -0.19140625
-0.339285701513290405 -0.0390625 -0.38671875
0.312500029802322388 -0.1640625 -0.3125
0.0535714291036128998 -0.152343764901161194 -0.43359375
0.455357134342193604 -0.0234374962747097015 -0.0859375
0.357142865657806396 -0.12109375 -0.234375
-0.0535714291036128998 -0.125 -0.40625
-0.0625 -0.12890625 -0.41015625
-0.142857149243354797 -0.09765625 -0.41796875
0.0714285746216773987 -0.1484375 -0.4140625
-0.0892857164144515991 -0.1015625 -0.42578125
0.160714268684387207 -0.15625 -0.39453125
0.4375 -0.109375 -0.156250014901161194
-0.089285723865032196 -0.117187477648258209 -0.41015625
0.401785731315612793 -0.123293042182922363 -0.242051541805267334
0.294642865657806396 -0.1640625 -0.351562470197677612
-0.357142865657806396 0.015625 -0.40234375
-0.366071432828903198 0.1171875 -0.3515625
-0.178571462631225586 -0.08984375 -0.421875
0.464285701513290405 -0.08203125 -0.12890625
0.464285671710968018 -0.0693359225988388062 -0.10546875
-0.142857149243354797 -0.109375 -0.43359375
-0.160714283585548401 -0.0898437574505805969 -0.42578125
-0.375 0.03125 -0.3828125
0.267857134342193604 -0.15234375 -0.375
0.25 -0.15234375 -0.3671875
-0.125 -0.10546875 -0.41015625
-0.151785716414451599 -0.11328125 -0.4140625
-0.366071432828903198 -0.0078125782310962677 -0.406249970197677612
-0.366071432828903198 0.1328125 -0.28515625
-0.375 0.10546875 -0.3515625
0.258928567171096802 -0.16015625 -0.3515625
6.65567048089427127e-13 -0.12109375 -0.425781279802322388
-0.223214283585548401 -0.09765625 -0.4296875
-0.0535714291036128998 -0.1171875 -0.41015625
-0.178571417927742004 -0.08984375 -0.4296875
-0.151785716414451599 -0.1171875 -0.421875
-0.366071432828903198 0.0322265625 -0.394531279802322388
0.160714283585548401 -0.156250029802322388 -0.41796875
0.160714238882064819 -0.16796875 -0.417968779802322388
-0.339285701513290405 -0.01953125 -0.3984375
-0.0535714253783226013 -0.1328125 -0.421875
-0.232142850756645203 -0.1015625 -0.4140625
0.125 -0.14453125 -0.4140625
-6.43784342242020857e-13 -0.1328125 -0.41796875
0.4375 -0.07421875 -0.1015625
-0.0357142947614192963 -0.1328125 -0.41015625
-0.178571417927742004 -0.109375 -0.4296875
0.0803571417927742004 -0.140625 -0.4140625
0.178571432828903198 -0.1484375 -0.40625
0.249999970197677612 -0.16796875 -0.374999970197677612
-0.0892857164144515991 -0.101562514901161194 -0.42578125
-0.0714285671710968018 -0.121093757450580597 -0.4296875
0.160714268684387207 -0.171875 -0.3984375
0.160714283585548401 -0.15234375 -0.3984375
0.4375 -0.0546875 -0.10546875
-0.177778676152229309 -0.0882066190242767334 -0.433403581380844116
0.0178571436554193497 -0.12890625 -0.42578125
-0.357142806053161621 0.015625 -0.393229156732559204
0.348214298486709595 -0.1328125 -0.30078125
0.446428567171096802 -0.078125 -0.1015625
-0.089285723865032196 -0.109375 -0.41015625
-0.0982142835855484009 -0.11328125 -0.43359375
0.0625 -0.13671875 -0.43359375
0.0089285699650645256 -0.136718764901161194 -0.421875
0.446428567171096802 -0.09375 -0.1328125
0.375000029802322388 -0.102864578366279602 -0.214843764901161194
0.0982142835855484009 -0.15234375 -0.41015625
0.0803571417927742004 -0.15234375 -0.41015625
-0.375 0.046875 -0.40234375
0.0446426235139369965 -0.136718764901161194 -0.41796875
-0.285714328289031982 -0.08984375 -0.40234375
-0.0178571455180644989 -0.1171875 -0.42578125
-0.0089285699650645256 -0.125 -0.406250059604644775
-0.00892857182770967484 -0.13671875 -0.41796875
0.383928567171096802 -0.1171875 -0.20703125
0.133928567171096802 -0.167968735098838806 -0.402343720197677612
0.258928567171096802 -0.171875 -0.3671875
-0.0714285746216773987 -0.10546875 -0.4140625
-0.375 0.1171875 -0.347655802965164185
-0.00892857182770967484 -0.1171875 -0.41015625
0.0357142873108386993 -0.1328125 -0.421875
0.455357134342193604 -0.0859375 -0.109375
-0.383928567171096802 0.0507812462747097015 -0.375
0.464285761117935181 -0.0546875111758708954 -0.1005859375
-0.098214276134967804 -0.1015625 -0.41796875
-0.1071428582072258 -0.101562507450580597 -0.41796875
-0.321428567171096802 -0.06640625 -0.40625
0.375 -0.117187514901161194 -0.265625
0.339285671710968018 -0.16015625 -0.30859375
0.241071432828903198 -0.152343764901161194 -0.37890625
0.133928567171096802 -0.14453125 -0.417968720197677612
-0.0446428507566452026 -0.12109375 -0.40625
0.0535714328289031982 -0.140625014901161194 -0.437500029802322388
-0.0982142835855484009 -0.109375 -0.43359375
0.0267857145518064499 -0.14453125 -0.43359375
0.357142925262451172 -0.131510406732559204 -0.238281264901161194
-0.383928507566452026 0.0247396118938922882 -0.39453125
0.464285701513290405 -0.0742188394069671631 -0.09375
0.258928567171096802 -0.171875 -0.3671875
0.00892857182770967484 -0.140625 -0.437500029802322388
-0.00892857182770967484 -0.1328125 -0.410156279802322388
-0.0267857145518064499 -0.132812485098838806 -0.41796875
0.0446428544819355011 -0.148437470197677612 -0.4375
-0.383928596973419189 0.11328125 -0.343749970197677612
0.285714328289031982 -0.16796875 -0.3515625
0.446428567171096802 -0.08984375 -0.121094755828380585
0.464285701513290405 -0.06640625 -0.109375
-0.375 0.109375 -0.332031279802322388
-0.00892857182770967484 -0.1171875 -0.421875
0.0625 -0.14453125 -0.43359375
0.428571432828903198 -0.10546875 -0.19140625
-0.214285716414451599 -0.10546875 -0.4296875
0.214285716414451599 -0.171875 -0.394531220197677612
0.410714268684387207 -0.108072914183139801 -0.219401031732559204
-0.392857134342193604 0.0742187350988388062 -0.37890625
0.357127636671066284 -0.140625506639480591 -0.304687470197677612
0.0267857145518064499 -0.14453125 -0.43359375
-0.366071403026580811 0.1328125 -0.29296875
0.321428567171096802 -0.1640625 -0.31640625
0.196428567171096802 -0.16796875 -0.40234375
0.401785701513290405 -0.12890625 -0.21875
-0.366071432828903198 0.02734375 -0.39453125
-0.133928567171096802 -0.1015625 -0.41796875
-0.383928596973419189 0.0156250018626451492 -0.395182251930236816
0.0446428582072257996 -0.1484375 -0.437499970197677612
-0.3125 -0.0507812574505805969 -0.394531279802322388
-0.0803571417927742004 -0.10546875 -0.414062529802322388
0.267857164144515991 -0.171875 -0.35546875
-0.107142843306064606 -0.12109375 -0.42578125
0.232142850756645203 -0.152343735098838806 -0.376302093267440796
0.410714298486709595 -0.0937500074505805969 -0.19921875
-0.214285716414451599 -0.08203125 -0.421875
-0.169642850756645203 -0.10546875 -0.4140625
0.330357164144515991 -0.13671875 -0.316406279802322388
0.35714307427406311 -0.121093623340129852 -0.253906190395355225
0.374894648790359497 -0.117247574031352997 -0.214951172471046448
0.116071425378322601 -0.15625 -0.4296875
0.0714285746216773987 -0.136718764901161194 -0.4140625
0.392857104539871216 -0.1298828125 -0.250976592302322388
0.116071425378322601 -0.14453125 -0.41015625
-0.25 -0.09375 -0.425781220197677612
0.375 -0.11328125 -0.26171875
0.401785701513290405 -0.09765625 -0.21484375
0.0357142873108386993 -0.1484375 -0.4296875
-0.1071428582072258 -0.121187426149845123 -0.425778329372406006
-0.0535714291036128998 -0.11328125 -0.41015625
0.357142895460128784 -0.12109375 -0.2578125
-0.232142850756645203 -0.0859375 -0.42578125
4.45128621462398399e-11 -0.1328125 -0.41796875
0.285714298486709595 -0.16796875 -0.35546875
-0.0714285746216773987 -0.10546875 -0.417968720197677612
-0.357142865657806396 0.0878672376275062561 -0.366640627384185791
0.0714285746216773987 -0.13671875 -0.421875
-0.0714285746216773987 -0.1171875 -0.43359375
0.0267857145518064499 -0.13671875 -0.42578125
-0.375 0.132812485098838806 -0.31640625
-0.366071432828903198 0.11328125 -0.328125
-0.312500029802322388 -0.046875 -0.39453125
0.00892857182770967484 -0.140624985098838806 -0.4296875
-0.0535714291036128998 -0.113281242549419403 -0.42578125
0.3125 -0.144531279802322388 -0.3359375
-0.196428567171096802 -0.109375 -0.4140625
0.116071425378322601 -0.144531264901161194 -0.421875
-0.366071432828903198 0.12109375 -0.33203125
0.366071432828903198 -0.121093735098838806 -0.27734375
0.116071425378322601 -0.1484375 -0.42578125
-0.339285701513290405 -0.046875 -0.402343720197677612
0.33928564190864563 -0.140465855598449707 -0.26138797402381897
0.348214328289031982 -0.136718764901161194 -0.3046875
0.4375 -0.0859375 -0.16015625
0.464285731315612793 -0.0731026753783226013 -0.127790182828903198
0.0892857164144515991 -0.156250014901161194 -0.42578125
0.133928567171096802 -0.171875 -0.4140625
-0.312500029802322388 -0.07421875 -0.3984375
0.223214313387870789 -0.15625 -0.375
0.125 -0.16796875 -0.4140625
0.392857134342193604 -0.1171875 -0.24609375
0.133928552269935608 -0.175781235098838806 -0.40625
-0.375 -0.00388793693855404854 -0.405021876096725464
-0.339285701513290405 -0.0390625 -0.38671875
-0.356274724006652832 0.133152827620506287 -0.316607832908630371
0.357142865657806396 -0.13671875 -0.25390625
-0.321428567171096802 -0.05859375 -0.40234375
-0.0803571417927742004 -0.12890625 -0.4140625
0.357142865657806396 -0.12890625 -0.296875
-0.241071432828903198 -0.0859375 -0.4140625
0.419642865657806396 -0.1171875 -0.19140625
-0.133928567171096802 -0.1015625 -0.41796875
0.410714298486709595 -0.0898325517773628235 -0.19141058623790741
-0.0535714291036128998 -0.109375 -0.4140625
0.303571432828903198 -0.1484375 -0.33984375
-0.125 -0.109375 -0.4140625
0.321428567171096802 -0.14453125 -0.285156309604644775
-0.169642850756645203 -0.109375 -0.4296875
0.3125 -0.16796875 -0.33203125
-0.3125 -0.0546875 -0.390624970197677612
0.446428567171096802 -0.06640625 -0.09375
0.446428567171096802 -0.015625 -0.07421875
0.0357142873108386993 -0.140625 -0.4375
0.125 -0.15625 -0.42578125
0.366071432828903198 -0.109375 -0.23046875
0.205357149243354797 -0.1640625 -0.402343720197677612
0.125 -0.171875 -0.40625
0.366071462631225586 -0.105468742549419403 -0.21875
0.223214283585548401 -0.16015625 -0.3828125
0.151785716414451599 -0.171875 -0.41015625
0.125 -0.1796875 -0.41015625
-0.178571432828903198 -0.10546875 -0.43359375
0.125 -0.15625 -0.42578125
0.196428567171096802 -0.17578125 -0.38671875
0.1071428582072258 -0.1484375 -0.42578125
0.428571462631225586 -0.07421875 -0.144531235098838806
-0.383928567171096802 0.02734375 -0.390625
-0.366071432828903198 0.12109375 -0.33203125
0.366071432828903198 -0.14453125 -0.2578125
-0.383928567171096802 0.05078125 -0.375
0.205357149243354797 -0.17578125 -0.390625
-0.357142865657806396 0.0078125 -0.40625
-0.187500014901161194 -0.09765625 -0.4375
0.205357134342193604 -0.171875 -0.39453125
0.142857149243354797 -0.171875 -0.40625
0.0357142873108386993 -0.1484375 -0.4296875
0.464285671710968018 -0.01171875 -0.1083984375
0.419642865657806396 -0.0859375 -0.1796875
-0.357142895460128784 0.015625 -0.40234375
0.464285701513290405 -0.0585937462747097015 -0.100585930049419403
0.151785716414451599 -0.16015625 -0.3984375
0.446428567171096802 -0.09375 -0.13671875
-0.142857149243354797 -0.117187492549419403 -0.4296875
-0.392857134342193604 0.0546875 -0.38671875
0.401785701513290405 -0.0859375 -0.19140625
0.276785701513290405 -0.1484375 -0.359375
0.330357134342193604 -0.136193230748176575 -0.28125
0.0803571417927742004 -0.1484375 -0.429687440395355225
-0.0982142835855484009 -0.12109375 -0.4296875
-0.214285716414451599 -0.10546875 -0.429687529802322388
-0.0625 -0.125000014901161194 -0.4296875
0.410714268684387207 -0.102343752980232239 -0.160156235098838806
0.125 -0.1796875 -0.41015625
-0.107142865657806396 -0.0976562574505805969 -0.421875
-0.0267857145518064499 -0.132812514901161194 -0.41796875
0.089285723865032196 -0.14453125 -0.40625
0.133928567171096802 -0.14453125 -0.417968720197677612
0.133928567171096802 -0.158854156732559204 -0.40625
-0.1875 -0.0898437425494194031 -0.421875
-0.0803571417927742004 -0.1171875 -0.4296875
0.0267857126891613007 -0.14453125 -0.4296875
0.0267857145518064499 -0.136718735098838806 -0.42578125
-0.169642865657806396 -0.11328125 -0.42578125
0.0714285746216773987 -0.13671875 -0.4296875
-0.232142850756645203 -0.1015625 -0.41015625
0.428571432828903198 -0.06640625 -0.128906264901161194
0.0624859035015106201 -0.13671875 -0.41796875
0.0446428693830966949 -0.15234375 -0.433593720197677612
0.330357164144515991 -0.12890625 -0.28515625
0.375 -0.125 -0.273437529802322388
-6.05042749300503668e-14 -0.1328125 -0.4375
0.339285701513290405 -0.15234375 -0.328125
0.285714268684387207 -0.167968735098838806 -0.33203125
-0.339285671710968018 -0.0546875 -0.390625
-0.0803571417927742004 -0.10546875 -0.4140625
-0.392857134342193604 0.0390625 -0.394531220197677612
-0.330357193946838379 -0.05859375 -0.38671875
0.383928567171096802 -0.11328125 -0.25390625
-0.366071432828903198 0.0859375 -0.3671875
0.321428596973419189 -0.136718779802322388 -0.320312470197677612
0.267857134342193604 -0.171875 -0.359375
-0.0535714216530323029 -0.125 -0.40625
0.241071432828903198 -0.16796875 -0.38671875
-1.03727952876359053e-12 -0.1328125 -0.432202398777008057
0.241071432828903198 -0.152343735098838806 -0.37890625
0.169642835855484009 -0.1640625 -0.4140625
-0.0446428582072257996 -0.125 -0.40625
0.160714298486709595 -0.171875 -0.403320342302322388
4.23348994749161989e-10 -0.12890625 -0.43359375
0.303576648235321045 -0.16015625 -0.351553887128829956
0.0267857145518064499 -0.132812485098838806 -0.421875
-0.375 0.0945091173052787781 -0.355118542909622192
0.0357142873108386993 -0.12890625 -0.42578125
0.232142850756645203 -0.16796875 -0.38671875
1.7965262524149983e-12 -0.140625 -0.4296875
-0.241071432828903198 -0.1015625 -0.41796875
-0.223214283585548401 -0.10546875 -0.421875
-0.0267857145518064499 -0.12890625 -0.410156220197677612
-0.0446428582072257996 -0.12109375 -0.4296875
-0.285714298486709595 -0.08203125 -0.41015625
-0.0892857164144515991 -0.125 -0.41796875
-0.116071425378322601 -0.10546875 -0.4140625
0.1875 -0.171875 -0.390625
-0.00892857182770967484 -0.12890625 -0.41015625
0.366071432828903198 -0.125000014901161194 -0.2265625
-0.232142850756645203 -0.0859374925494194031 -0.41796875
-0.160714283585548401 -0.11328125 -0.42578125
-0.330357134342193604 -0.0195312537252902985 -0.3984375
-0.0892857164144515991 -0.11328125 -0.41015625
0.0267857164144515991 -0.13671875 -0.441406220197677612
-0.0714285671710968018 -0.10546875 -0.421875
0.4375 -0.101562492549419403 -0.16015625
0.196428567171096802 -0.16015625 -0.40625
0.4375 -0.101562514901161194 -0.156250014901161194
0.0625000074505805969 -0.1328125 -0.421875
0.25 -0.167968735098838806 -0.375
-0.160714283585548401 -0.11328125 -0.4296875
-0.0178571436554193497 -0.125 -0.4296875
0.205357149243354797 -0.15625 -0.37890625
-0.0446428582072257996 -0.125 -0.40625
0.348214268684387207 -0.140625 -0.312499970197677612
0.410714298486709595 -0.0867736637592315674 -0.15234375
-0.366071403026580811 0.12109375 -0.31640625
-0.339285701513290405 -0.046875 -0.40234375
0.178571417927742004 -0.171875 -0.390625
0.214285716414451599 -0.15234375 -0.382812529802322388
-0.0982142835855484009 -0.12109375 -0.41015625
0.321428596973419189 -0.140625 -0.291666656732559204
0.0535714328289031982 -0.132812514901161194 -0.4296875
0.1875 -0.171875 -0.3984375
0.0714285746216773987 -0.136718720197677612 -0.4296875
-0.392857104539871216 0.07421875 -0.374999940395355225
-0.357142865657806396 0.1328125 -0.3203125
0.383928567171096802 -0.135013043880462646 -0.265942275524139404
-0.357142865657806396 0.124872200191020966 -0.301335841417312622
-0.375 0.13671875 -0.30859375
-0.339285731315612793 -0.04296875 -0.3828125
-0.232142850756645203 -0.08984375 -0.4140625
0.0357142873108386993 -0.128906235098838806 -0.425781309604644775
0.0357142873108386993 -0.1328125 -0.441406220197677612
0.223214283585548401 -0.16015625 -0.37890625
-0.285714268684387207 -0.0859375 -0.40625
0.455357164144515991 -0.0234375018626451492 -0.113281242549419403
0.214285716414451599 -0.15625 -0.37890625
-0.267857134342193604 -0.09375 -0.41015625
-0.366071432828903198 0.05859375 -0.390625
0.383928567171096802 -0.1015625 -0.2265625
-0.232142850756645203 -0.08984375 -0.42578125
0.339285701513290405 -0.12890625 -0.2578125
-0.214285716414451599 -0.08203125 -0.4140625
0.348214298486709595 -0.1484375 -0.26953125
0.0446428582072257996 -0.12890625 -0.4296875
-0.205357164144515991 -0.0859375 -0.421875
-0.339285761117935181 -0.03125 -0.390625
0.241071432828903198 -0.1640625 -0.390625
0.410714328289031982 -0.0898437425494194031 -0.1396484375
0.321428567171096802 -0.1640625 -0.3203125
-0.0625 -0.11328125 -0.41015625
-0.0892857089638710022 -0.1015625 -0.417968720197677612
0.258928567171096802 -0.16796875 -0.375
-0.241071388125419617 -0.1015625 -0.42578125
-0.0714285746216773987 -0.125 -0.421874940395355225
-0.0625 -0.10546875 -0.421875
0.232142716646194458 -0.15234375 -0.37109375
0.428571432828903198 -0.1103515625 -0.1806640625
-0.133928567171096802 -0.113281242549419403 -0.429687440395355225
0.428571432828903198 -0.09375 -0.1328125
0.142857134342193604 -0.152343735098838806 -0.421875
-0.0714285746216773987 -0.10546875 -0.417968720197677612
-3.74322643194313631e-13 -0.121093757450580597 -0.43359375
0.0357142873108386993 -0.1328125 -0.421875029802322388
0.160714387893676758 -0.1640625 -0.3984375
0.357142865657806396 -0.1484375 -0.30078125
0.366071432828903198 -0.130208328366279602 -0.2890625
0.339285701513290405 -0.16015625 -0.30078125
-0.151785716414451599 -0.09375 -0.4296875
0.464285701513290405 -0.0273415762931108475 -0.0937514305114746094
0.410714268684387207 -0.098958335816860199 -0.156901046633720398
-0.348214268684387207 -0.05078125 -0.390625
0.196428567171096802 -0.171875 -0.3828125
-0.196428552269935608 -0.09375 -0.4140625
0.375000029802322388 -0.132812485098838806 -0.277343720197677612
-0.366071432828903198 0.0781250074505805969 -0.37890625
0.169642850756645203 -0.148437514901161194 -0.3984375
-0.0982142835855484009 -0.11328125 -0.433593809604644775
0.464285701513290405 -0.0507814362645149231 -0.0914054140448570251
-0.0892857164144515991 -0.1015625 -0.42578125
-0.1071428582072258 -0.121093757450580597 -0.41796875
0.1071428582072258 -0.1484375 -0.42578125
-0.375000029802322388 0.121093742549419403 -0.3203125
0.125 -0.171875029802322388 -0.40234375
-0.383928567171096802 0.128906235098838806 -0.31640625
-0.0267857145518064499 -0.12109375 -0.41015625
-0.366071432828903198 0.0939353927969932556 -0.3515625
0.223214283585548401 -0.171874985098838806 -0.381835907697677612
-0.169642835855484009 -0.109375 -0.4140625
0.410714298486709595 -0.09375 -0.153461083769798279
0.375000059604644775 -0.12890625 -0.28125
0.0714285671710968018 -0.1484375 -0.41015625
-0.0803571417927742004 -0.12109375 -0.4296875
-0.142857149243354797 -0.0976562649011611938 -0.4296875
0.366071432828903198 -0.1328125 -0.2421875
-0.366071462631225586 -0.0078125 -0.398437529802322388
0.366071432828903198 -0.11328125 -0.2578125
0.339285731315612793 -0.13671875 -0.2578125
-0.196428567171096802 -0.10546875 -0.414062470197677612
0.205357164144515991 -0.15625 -0.37890625
0.330357134342193604 -0.145322665572166443 -0.27734375
-0.196428567171096802 -0.0859375 -0.421875
0.0446428544819355011 -0.1484375 -0.425781279802322388
-0.348214298486709595 -0.0195312518626451492 -0.40234375
0.089285723865032196 -0.140625 -0.41015625
0.446428567171096802 -0.03515625 -0.09765625
0.437500029802322388 -0.1015625 -0.14453125
0.0357142835855484009 -0.1328125 -0.441406190395355225
-0.1071428582072258 -0.1171875 -0.41015625
-0.0625 -0.12890625 -0.421875
0.1071428582072258 -0.15625 -0.40625
0.0714285746216773987 -0.15625 -0.41796875
0.178571432828903198 -0.1484375 -0.40234375
0.4375 -0.08203125 -0.16015625
0.339285701513290405 -0.16015625 -0.3125
-0.366071432828903198 0.01171875 -0.38671875
-0.330357193946838379 -0.05078125 -0.40234375
0.40178564190864563 -0.0937499925494194031 -0.19140625
-0.0357142873108386993 -0.1328125 -0.41796875
0.3125 -0.140625 -0.33203125
0.214285716414451599 -0.15625 -0.386718779802322388
-0.0982142835855484009 -0.12109375 -0.421875
0.214285716414451599 -0.15234375 -0.37890625
0.196428567171096802 -0.15234375 -0.3984375
0.196428567171096802 -0.156249985098838806 -0.382812470197677612
0.455357164144515991 -0.0195312481373548508 -0.08203125
-0.232142850756645203 -0.0976562649011611938 -0.4296875
-0.0714285746216773987 -0.12890625 -0.4140625
-0.23214288055896759 -0.09375 -0.4296875
0.392857134342193604 -0.12890625 -0.23046875
-0.392857134342193604 0.0703125 -0.38671875
-0.25 -0.0859375 -0.41015625
-0.0357142910361289978 -0.125 -0.406249940395355225
-0.1071428582072258 -0.12109375 -0.42578125
-0.044642861932516098 -0.12109375 -0.40625
0.223214298486709595 -0.16796875 -0.394531220197677612
0.0178571436554193497 -0.140625 -0.43359375
0.125 -0.16796875 -0.41015625
-0.375 0.07421875 -0.375
0.446428537368774414 -0.015625 -0.09375
-0.374999970197677612 -0.0081597277894616127 -0.40234375
0.25 -0.16015625 -0.3515625
-0.366071432828903198 0.0820312425494194031 -0.3828125
-0.1071428582072258 -0.09765625 -0.421875
0.178571432828903198 -0.16015625 -0.3828125
0.285714268684387207 -0.1640625 -0.33203125
-0.0892857164144515991 -0.11328125 -0.4296875
-0.116071425378322601 -0.1171875 -0.41796875
-0.178571432828903198 -0.09765625 -0.4140625
0.1071428582072258 -0.14453125 -0.421875
0.392857134342193604 -0.10546875 -0.23046875
-0.151785716414451599 -0.11328125 -0.4140625
0.410714298486709595 -0.12109375 -0.213304981589317322
-0.348214298486709595 -0.04296875 -0.3984375
0.285714268684387207 -0.15234375 -0.357031255960464478
-0.241071432828903198 -0.08984375 -0.4140625
-0.1875 -0.09765625 -0.4375
-0.1071428582072258 -0.09765625 -0.421875
0.410714298486709595 -0.08203125 -0.156249985098838806
-0.392857134342193604 0.04296875 -0.390625
0.0714285746216773987 -0.15625 -0.421875
0.116071425378322601 -0.140625 -0.41796875
0.375000029802322388 -0.1171875 -0.2109375
0.321428567171096802 -0.13671875 -0.294270813465118408
-0.25 -0.08203125 -0.414062470197677612
0.196428567171096802 -0.16796875 -0.40234375
0.178571432828903198 -0.15625 -0.41015625
0.1071428582072258 -0.14453125 -0.41015625
0.276500493288040161 -0.16796875 -0.36328125
-0.0714285746216773987 -0.113281242549419403 -0.4296875
0.00892857275903224945 -0.125 -0.43359375
0.160714283585548401 -0.1484375 -0.40625
-0.348214298486709595 -0.015625 -0.38671875
-0.392857134342193604 0.05078125 -0.39453125
0.312500029802322388 -0.16015625 -0.343750029802322388
0.446428567171096802 -0.05859375 -0.1171875
0.223214283585548401 -0.171875 -0.390625
-0.383928596973419189 0.00781249906867742538 -0.3984375
-0.160714283585548401 -0.09375 -0.41796875
0.285714268684387207 -0.164062485098838806 -0.3359375
-0.285714298486709595 -0.0703125 -0.40234375
-0.357142865657806396 0.136718764901161194 -0.304687470197677612
0.303571432828903198 -0.14453125 -0.33984375
0.00892857182770967484 -0.12109375 -0.4375
-0.205357134342193604 -0.10546875 -0.43359375
0.446428596973419189 -0.0234374962747097015 -0.09375
0.232142850756645203 -0.16796875 -0.36328125
-0.3125 -0.0742187574505805969 -0.3984375
0.214285716414451599 -0.16796875 -0.37109375
0.383928567171096802 -0.117187507450580597 -0.203125
0.0267857145518064499 -0.12890625 -0.44140625
-0.240994453430175781 -0.101452797651290894 -0.425944983959197998
0.0892857164144515991 -0.15234375 -0.42578125
0.0892857089638710022 -0.14453125 -0.40625
0.375 -0.11328125 -0.261718779802322388
0.267857134342193604 -0.156249985098838806 -0.37890625
0.464285701513290405 -0.0703125 -0.12109375
-0.214285716414451599 -0.0859375 -0.414062529802322388
-0.312500029802322388 -0.0664062574505805969 -0.39453125
-0.20535711944103241 -0.109375 -0.4296875
0.375 -0.1328125 -0.283854186534881592
-0.0178571436554193497 -0.12890625 -0.406250029802322388
