ply
format ascii 1.0
element vertex 732
comment vertices
property float x
property float y
property float z
end_header
-0.190854504704475403 -0.0479004532098770142 -0.257960796356201172
-0.191313877701759338 -0.0778205394744873047 -0.256600618362426758
-0.212862178683280945 0.0425724051892757416 -0.139946967363357544
0.591133058071136475 -0.195735186338424683 -0.158283039927482605
-0.203824341297149658 0.0765974074602127075 -0.0800668820738792419
0.583872616291046143 -0.135683566331863403 -0.111053436994552612
-0.280029952526092529 0.02998337522149086 -0.0110356546938419342
-0.131177961826324463 0.0119634829461574554 -0.262911081314086914
0.366445481777191162 -0.268850505352020264 -0.367492109537124634
0.352754384279251099 -0.261988282203674316 -0.379593521356582642
-0.215422585606575012 0.160394936800003052 0.126455485820770264
-0.194603726267814636 -0.168009191751480103 -0.326059460639953613
-0.328371793031692505 -0.171984642744064331 0.23289760947227478
0.499873310327529907 -0.233577758073806763 -0.273294210433959961
0.498479515314102173 -0.246130362153053284 -0.24613933265209198
0.388871908187866211 -0.247074916958808899 -0.304027169942855835
-0.119275815784931183 0.088268578052520752 -0.0893594920635223389
-0.200111448764801025 -0.00747187435626983643 -0.22935900092124939
0.592964768409729004 -0.180380880832672119 -0.076955057680606842
0.568361818790435791 -0.21731935441493988 -0.214574068784713745
-0.197058781981468201 0.0418755225837230682 -0.173648595809936523
-0.222116395831108093 0.0671518668532371521 -0.054543670266866684
-0.16788916289806366 -0.0759403258562088013 -0.263136863708496094
-0.107776284217834473 -0.168449863791465759 -0.337011963129043579
0.589859366416931152 -0.155347958207130432 -0.135807409882545471
-0.299495846033096313 -0.0866960585117340088 0.10309109091758728
-0.245609953999519348 0.0512214489281177521 -0.0218049958348274231
0.563771486282348633 -0.254107564687728882 -0.251281678676605225
0.565004050731658936 -0.195796087384223938 -0.235494881868362427
0.668762326240539551 -0.101140037178993225 -0.153119742870330811
-0.200050398707389832 -0.0419493094086647034 -0.204012975096702576
0.282870054244995117 -0.268404573202133179 -0.346709191799163818
-0.129217341542243958 0.201892316341400146 0.0409861616790294647
-0.143251821398735046 0.240176394581794739 0.148272544145584106
0.450792282819747925 -0.258971303701400757 -0.285081952810287476
-0.212796375155448914 0.0719893500208854675 -0.0481435582041740417
0.524562835693359375 -0.21971912682056427 -0.258505046367645264
-0.0877744629979133606 -0.193092525005340576 -0.33080562949180603
-0.336646825075149536 -0.189082786440849304 0.283729612827301025
-0.371719688177108765 -0.247710764408111572 0.345510900020599365
-0.27208748459815979 -0.0560634806752204895 -0.269307583570480347
-0.17653009295463562 -0.136451989412307739 -0.303326666355133057
0.553046286106109619 -0.164394602179527283 -0.130970999598503113
-0.111028425395488739 -0.212602719664573669 -0.383849620819091797
-0.208720102906227112 -0.0422726497054100037 -0.283445864915847778
-0.204648703336715698 -0.0287708491086959839 -0.231437072157859802
0.144425973296165466 -0.190416425466537476 -0.375069022178649902
-0.349625349044799805 -0.178899243474006653 0.263554692268371582
-0.234096318483352661 -0.0341755934059619904 -0.26227685809135437
0.600107312202453613 -0.126885950565338135 -0.15151679515838623
0.146805927157402039 -0.257418990135192871 -0.380380243062973022
-0.21572449803352356 -0.0206792708486318588 -0.238639906048774719
0.359685063362121582 -0.314972877502441406 -0.341261386871337891
0.287071257829666138 -0.264055699110031128 -0.371431291103363037
0.219623565673828125 -0.266130983829498291 -0.34113466739654541
0.597139179706573486 -0.105205163359642029 -0.0936750695109367371
-0.167706474661827087 0.0687821879982948303 -0.065823577344417572
-0.268541455268859863 -0.0229443870484828949 0.0807857513427734375
-0.0477955490350723267 -0.232774332165718079 -0.383098244667053223
-0.20711478590965271 0.0126131176948547363 0.0388989672064781189
0.420645475387573242 -0.265759527683258057 -0.335303694009780884
-0.210884213447570801 0.0301697906106710434 -0.0951966941356658936
0.557852804660797119 -0.236040472984313965 -0.234223246574401855
0.531594157218933105 -0.260174065828323364 -0.170663326978683472
0.486346334218978882 -0.19607195258140564 -0.276951730251312256
-0.155847430229187012 -0.122990608215332031 -0.313346028327941895
-0.216088980436325073 -0.0222486052662134171 -0.1799803227186203
-0.322776734828948975 -0.090975634753704071 0.147800907492637634
-0.244001239538192749 -0.00564343947917222977 0.0861095190048217773
-0.190201058983802795 0.150627508759498596 0.0893648713827133179
-0.212825194001197815 -0.0341354794800281525 -0.257100522518157959
0.570558607578277588 -0.187166854739189148 -0.14488239586353302
-0.166203662753105164 0.229377344250679016 0.179211944341659546
-0.294901549816131592 -0.0718251690268516541 0.158489152789115906
0.270445287227630615 -0.261545449495315552 -0.345102608203887939
-0.198577880859375 0.0672546401619911194 -0.110154695808887482
-0.233040407299995422 0.0529650487005710602 -0.0983268618583679199
0.53870236873626709 -0.236115261912345886 -0.205577671527862549
0.332205682992935181 -0.235797867178916931 -0.318418592214584351
-0.180708542466163635 0.0603897236287593842 -0.0954592898488044739
-0.271955817937850952 -0.0271423347294330597 0.115446098148822784
0.54715263843536377 -0.205099001526832581 -0.168068021535873413
0.576941311359405518 -0.115288667380809784 -0.11712232232093811
0.534901082515716553 -0.288053601980209351 -0.275308281183242798
0.372755676507949829 -0.242188140749931335 -0.342419326305389404
0.281854897737503052 -0.248804301023483276 -0.396586894989013672
-0.199224963784217834 0.0187199357897043228 -0.181744128465652466
-0.0860404670238494873 0.169288158416748047 0.0019399209413677454
-0.182024300098419189 -0.0250523071736097336 -0.230584636330604553
-0.186387151479721069 -0.113273225724697113 -0.278971970081329346
-0.130436673760414124 -0.113190814852714539 -0.282049775123596191
-0.26796954870223999 0.0135269323363900185 0.0573282018303871155
-0.124993942677974701 0.0750594213604927063 -0.0766469836235046387
-0.254085719585418701 0.0157092232257127762 0.0483592785894870758
-0.30605730414390564 -0.0681815445423126221 0.182976484298706055
0.504422664642333984 -0.149568036198616028 -0.110169388353824615
0.520949363708496094 -0.191322296857833862 -0.210949450731277466
0.100100845098495483 -0.234470412135124207 -0.352337688207626343
-0.227148205041885376 -0.125569075345993042 -0.303374826908111572
-0.0912971571087837219 0.123469449579715729 0.00028876942815259099
-0.112126700580120087 0.154241591691970825 -0.0288848951458930969
0.11261313408613205 -0.219021305441856384 -0.382315188646316528
-0.12198975682258606 0.203360959887504578 0.0296377930790185928
-0.216672942042350769 0.00732633564621210098 -0.186902463436126709
-0.2675190269947052 -0.037334829568862915 0.0869861394166946411
-0.183736026287078857 0.232248082756996155 0.166023552417755127
-0.145083785057067871 0.0920127853751182556 -0.0787296369671821594
-0.310720741748809814 -0.140827387571334839 0.149619162082672119
-0.318554222583770752 -0.0963651984930038452 0.128835037350654602
-0.177037626504898071 0.17852349579334259 0.0616271272301673889
-0.141668885946273804 -0.227568164467811584 -0.349482417106628418
0.521394312381744385 -0.237813860177993774 -0.29434126615524292
0.385478705167770386 -0.261941850185394287 -0.29762113094329834
-0.310056477785110474 -0.0853217840194702148 0.177707672119140625
-0.10472714900970459 -0.213819399476051331 -0.361077547073364258
-0.177093520760536194 0.0571319013833999634 -0.0676395148038864136
0.510964512825012207 -0.227486535906791687 -0.165600016713142395
-0.185494616627693176 -0.0768242999911308289 -0.251709699630737305
-0.224471792578697205 -0.111703045666217804 -0.293052405118942261
-0.247547045350074768 0.0478232353925704956 -0.00345078972168266773
0.247000783681869507 -0.303058803081512451 -0.325927197933197021
-0.151470810174942017 0.251975923776626587 0.105770424008369446
-0.224122762680053711 -0.0394600220024585724 -0.219576478004455566
0.452881157398223877 -0.270989447832107544 -0.294560343027114868
0.467043191194534302 -0.276406735181808472 -0.281807094812393188
0.131502732634544373 -0.266698986291885376 -0.345957279205322266
0.176344916224479675 -0.234496816992759705 -0.388384878635406494
-0.184011399745941162 -0.143835455179214478 -0.298827975988388062
0.317261993885040283 -0.231201782822608948 -0.379971444606781006
0.492609381675720215 -0.223028123378753662 -0.277555257081985474
0.127528607845306396 -0.26607215404510498 -0.360665977001190186
0.491049855947494507 -0.182360738515853882 -0.150680497288703918
-0.29628947377204895 -0.0575452335178852081 0.102033749222755432
0.378535956144332886 -0.245481640100479126 -0.340800583362579346
0.569392979145050049 -0.194671452045440674 -0.129820853471755981
0.113332390785217285 -0.189568400382995605 -0.369960129261016846
-0.101692162454128265 0.215469613671302795 0.0245593860745429993
-0.189164057374000549 0.124473318457603455 -0.0941365510225296021
0.619587600231170654 -0.16482698917388916 -0.131303459405899048
0.654024302959442139 -0.20514214038848877 -0.113499678671360016
-0.0716456696391105652 0.183372586965560913 0.0364221446216106415
-0.0872587934136390686 0.0873864293098449707 -0.0516742393374443054
-0.169333741068840027 -0.0862795189023017883 -0.311088770627975464
-0.169767066836357117 0.0346449129283428192 -0.148910030722618103
0.632736027240753174 -0.202513545751571655 -0.221347793936729431
-0.18599402904510498 0.0365625284612178802 -0.183142855763435364
-0.213060274720191956 0.0424125902354717255 -0.0659571439027786255
0.519334554672241211 -0.255146414041519165 -0.236185058951377869
0.515099763870239258 -0.287450939416885376 -0.218994453549385071
-0.374216407537460327 -0.182974234223365784 0.306258291006088257
0.522065699100494385 -0.217327401041984558 -0.275295436382293701
-0.394455432891845703 -0.245675131678581238 0.358553290367126465
-0.0758615210652351379 0.145604893565177917 -0.0335154831409454346
0.261155515909194946 -0.263396143913269043 -0.382085949182510376
-0.223580822348594666 0.0520124360918998718 -0.125483289361000061
0.492566198110580444 -0.245836853981018066 -0.300848841667175293
-0.193455591797828674 0.0486277416348457336 -0.100099034607410431
-0.199158504605293274 -0.130459621548652649 -0.279304295778274536
-0.00494639016687870026 -0.246336102485656738 -0.399391442537307739
-0.366290509700775146 -0.257252544164657593 0.328053921461105347
0.390332549810409546 -0.257976889610290527 -0.324228972196578979
0.55786973237991333 -0.215292245149612427 -0.162989035248756409
0.400918632745742798 -0.271496593952178955 -0.30188867449760437
-0.0536950826644897461 -0.240966796875 -0.360412895679473877
0.5872802734375 -0.120383508503437042 -0.101348735392093658
-0.127852171659469604 -0.183875501155853271 -0.319537132978439331
-0.115222811698913574 0.16377703845500946 0.0235155615955591202
-0.121833324432373047 0.164517864584922791 0.0266033913940191269
-0.30046546459197998 -0.0786391869187355042 0.190776526927947998
0.250296503305435181 -0.225404500961303711 -0.368330180644989014
-0.0704476609826087952 0.191903099417686462 0.0444630347192287445
0.232399702072143555 -0.236244574189186096 -0.347973674535751343
-0.184472367167472839 -0.110922209918498993 -0.328460693359375
-0.170980542898178101 0.0669097155332565308 -0.0954967737197875977
-0.115857288241386414 -0.178130835294723511 -0.364234387874603271
-0.129175096750259399 0.196031108498573303 0.0374449267983436584
-0.0637897253036499023 0.131601303815841675 -0.0431828945875167847
-0.346736013889312744 -0.163373932242393494 0.219087287783622742
0.385922849178314209 -0.295446932315826416 -0.361339986324310303
-0.22989220917224884 0.0895392820239067078 -0.134230956435203552
-0.154197961091995239 -0.189488217234611511 -0.347671717405319214
-0.10383518785238266 0.160483360290527344 -0.0512508563697338104
-0.139878645539283752 0.100225210189819336 -0.0754765346646308899
-0.000708883570041507483 -0.208062037825584412 -0.369186997413635254
-0.156871691346168518 0.213048264384269714 0.168198347091674805
-0.349185675382614136 -0.165516093373298645 0.240026146173477173
-0.192329451441764832 0.0940037146210670471 -0.0805437564849853516
-0.176762253046035767 0.0373166613280773163 -0.149253934621810913
0.358443349599838257 -0.295222103595733643 -0.342044204473495483
0.551912307739257812 -0.126467883586883545 -0.15331190824508667
-0.195818781852722168 0.0374692454934120178 -0.161971434950828552
-0.223168507218360901 0.048576008528470993 -0.0493709556758403778
-0.0850139707326889038 -0.192171663045883179 -0.341120779514312744
-0.196400463581085205 0.0077126803807914257 -0.190418049693107605
-0.133078098297119141 -0.167775765061378479 -0.370145946741104126
0.331655681133270264 -0.223011806607246399 -0.313864231109619141
0.503778159618377686 -0.245036318898200989 -0.212599053978919983
-0.321460574865341187 -0.137585029006004333 0.223716467618942261
-0.147853240370750427 0.189351394772529602 0.0544497817754745483
-0.152826055884361267 0.245638206601142883 0.115371353924274445
0.609868884086608887 -0.195512309670448303 -0.189408719539642334
-0.113520883023738861 -0.191417008638381958 -0.349184930324554443
-0.358911663293838501 -0.19119986891746521 0.298402935266494751
-0.254108518362045288 0.0421081967651844025 -0.119766898453235626
-0.206281036138534546 -0.0241563636809587479 -0.201959013938903809
0.215023979544639587 -0.225966706871986389 -0.373617410659790039
-0.159225240349769592 -0.00349964341148734093 -0.239304989576339722
0.240531817078590393 -0.21495935320854187 -0.382570236921310425
-0.237114831805229187 0.0907294601202011108 -0.0585901737213134766
0.371363162994384766 -0.261439919471740723 -0.32743304967880249
-0.361633360385894775 -0.205156013369560242 0.293022394180297852
-0.130045339465141296 0.262648463249206543 0.0908388197422027588
-0.31436648964881897 -0.0762348845601081848 0.185712933540344238
0.512819766998291016 -0.321891576051712036 -0.254021942615509033
-0.0770041868090629578 -0.165928006172180176 -0.338759481906890869
-0.32460784912109375 -0.178093597292900085 0.243824020028114319
-0.302798181772232056 -0.113543733954429626 0.188721403479576111
-0.16463644802570343 -0.176953688263893127 -0.334648787975311279
0.591124594211578369 -0.176555871963500977 -0.103529736399650574
0.233523070812225342 -0.25285908579826355 -0.407622069120407104
-0.197283968329429626 -0.00691082002595067024 -0.150398910045623779
-0.380046367645263672 -0.192764103412628174 0.318890810012817383
0.439181596040725708 -0.23723997175693512 -0.29849696159362793
-0.181960940361022949 0.00554653489962220192 -0.195051982998847961
-0.100501887500286102 0.189886689186096191 0.034686896950006485
0.514358103275299072 -0.182323038578033447 -0.13464432954788208
-0.25501483678817749 0.0393659472465515137 0.0323380306363105774
0.597883760929107666 -0.106519550085067749 -0.132113397121429443
-0.225084394216537476 -0.0527338087558746338 -0.230135694146156311
-0.198091804981231689 0.177347525954246521 0.101355060935020447
-0.211390569806098938 0.156636714935302734 0.136382341384887695
0.576340794563293457 -0.237596705555915833 -0.206663534045219421
0.57349085807800293 -0.266472458839416504 -0.263673543930053711
-0.176916450262069702 -0.105789870023727417 -0.325963258743286133
-0.0889782831072807312 -0.175159916281700134 -0.354414045810699463
-0.320823729038238525 -0.144781678915023804 0.218495383858680725
-0.21699213981628418 -0.043955676257610321 -0.211063489317893982
0.468165963888168335 -0.253152817487716675 -0.285147279500961304
0.42812424898147583 -0.30206906795501709 -0.295037806034088135
0.02130153588950634 -0.194707587361335754 -0.438567042350769043
-0.189432710409164429 0.0765122324228286743 -0.155978769063949585
0.464779913425445557 -0.239908754825592041 -0.315040796995162964
0.56379091739654541 -0.217712908983230591 -0.173143073916435242
0.136290028691291809 -0.261982500553131104 -0.358781784772872925
-0.0638436600565910339 0.136774852871894836 -0.00906539801508188248
-0.156587600708007812 0.0149271441623568535 -0.231072545051574707
-0.117148235440254211 0.254762649536132812 0.0787901431322097778
-0.195196807384490967 0.0563850216567516327 -0.0770646929740905762
-0.198986560106277466 0.105580128729343414 -0.105921506881713867
0.0138669144362211227 -0.232975691556930542 -0.361531913280487061
-0.197650864720344543 0.019527774304151535 -0.198187410831451416
0.591172397136688232 -0.186825856566429138 -0.161422118544578552
0.435478687286376953 -0.257509618997573853 -0.310607880353927612
0.526454925537109375 -0.200099125504493713 -0.163030296564102173
-0.2055014967918396 0.0775905624032020569 -0.0949525237083435059
-0.0650517493486404419 0.181481316685676575 0.00889338087290525436
0.545314967632293701 -0.180491313338279724 -0.139320418238639832
-0.139358371496200562 0.207810059189796448 0.164037689566612244
0.604404687881469727 -0.152905270457267761 -0.139074966311454773
0.0326593145728111267 -0.214189499616622925 -0.371308833360671997
0.511977076530456543 -0.240901008248329163 -0.196243837475776672
-0.334200352430343628 -0.154983401298522949 0.232776984572410583
-0.127536043524742126 -0.0322086438536643982 -0.239838168025016785
-0.256727606058120728 0.0486213639378547668 0.0456707775592803955
-0.12248220294713974 0.175510674715042114 -0.0734230130910873413
-0.0875024124979972839 -0.23764781653881073 -0.366933673620223999
0.410039931535720825 -0.274859756231307983 -0.331295669078826904
-0.228910103440284729 0.0600904002785682678 -0.075978599488735199
0.324009060859680176 -0.250438690185546875 -0.351065784692764282
-0.24566631019115448 0.101594597101211548 -0.0715154260396957397
-0.231278613209724426 -0.0213438384234905243 0.0498034469783306122
-0.194349482655525208 -0.0564345382153987885 -0.217097386717796326
-0.151238307356834412 0.0390686951577663422 -0.155067399144172668
-0.0535120926797389984 -0.235756859183311462 -0.395597338676452637
0.211447417736053467 -0.244936257600784302 -0.333747804164886475
-0.202055826783180237 -0.10511491447687149 -0.286859810352325439
-0.012244456447660923 -0.276127338409423828 -0.353678107261657715
-0.238324165344238281 -0.0382475219666957855 0.0854057222604751587
-0.207217186689376831 0.0580895803868770599 -0.125195607542991638
0.402467250823974609 -0.240046590566635132 -0.340125203132629395
0.411828428506851196 -0.243178069591522217 -0.3344765305519104
-0.264546483755111694 0.01267194002866745 -0.233018681406974792
0.483484864234924316 -0.263495802879333496 -0.241440966725349426
0.567046880722045898 -0.221466243267059326 -0.199618175625801086
-0.169446080923080444 -0.168726831674575806 -0.322052061557769775
-0.0109104057773947716 -0.214164033532142639 -0.361228018999099731
0.379852294921875 -0.301338434219360352 -0.305530786514282227
-0.241793692111968994 0.0954813137650489807 -0.0794884264469146729
-0.0969024151563644409 0.198703393340110779 0.028786148875951767
-0.349050730466842651 -0.167456880211830139 0.221370860934257507
-0.00615292461588978767 -0.268234968185424805 -0.356946706771850586
0.414395630359649658 -0.295122683048248291 -0.264356255531311035
-0.127140045166015625 0.255956113338470459 0.146363347768783569
-0.318936377763748169 -0.158623218536376953 0.232488259673118591
0.24814547598361969 -0.232426285743713379 -0.349546134471893311
-0.141298174858093262 0.243443459272384644 0.133525684475898743
-0.231536448001861572 0.183208942413330078 0.120293542742729187
-0.197074413299560547 -0.0412035100162029266 -0.246404796838760376
-0.0944086238741874695 0.22993825376033783 0.0639893710613250732
-0.246609881520271301 -0.0027714588213711977 -0.192412495613098145
0.541055500507354736 -0.18420073390007019 -0.195669248700141907
-0.301411300897598267 -0.09801512211561203 0.152830362319946289
-0.250148028135299683 0.163160741329193115 0.132587909698486328
-0.21100170910358429 -0.0574298165738582611 -0.220115885138511658
-0.104401595890522003 0.206864103674888611 0.0964805930852890015
-0.017060108482837677 -0.208459600806236267 -0.362008005380630493
0.582417905330657959 -0.132861778140068054 -0.114608317613601685
0.45856165885925293 -0.224580898880958557 -0.31552809476852417
0.4945945143699646 -0.227408319711685181 -0.273067563772201538
0.292037874460220337 -0.292471498250961304 -0.355295121669769287
-0.164131879806518555 0.098996579647064209 -0.0453730747103691101
0.298198997974395752 -0.26294293999671936 -0.336993038654327393
-0.11585698276758194 0.128230288624763489 0.0249153077602386475
0.482991069555282593 -0.214327022433280945 -0.350275963544845581
0.485457420349121094 -0.253058046102523804 -0.257987350225448608
-0.350086838006973267 -0.220965728163719177 0.255076795816421509
-0.140163689851760864 -0.129205465316772461 -0.31086459755897522
-0.304948806762695312 -0.0941233262419700623 0.198553934693336487
0.556966423988342285 -0.21068255603313446 -0.183496728539466858
-0.253624796867370605 -0.00608973158523440361 -0.221708014607429504
-0.236289173364639282 0.0174324680119752884 -0.204987660050392151
0.46326059103012085 -0.251107990741729736 -0.32845693826675415
-0.159338399767875671 -0.148451849818229675 -0.311364918947219849
-0.216340318322181702 0.0663744062185287476 -0.0942162573337554932
-0.179769039154052734 0.0104010934010148048 -0.156168520450592041
-0.297056794166564941 0.0106510864570736885 0.0616276450455188751
0.472675919532775879 -0.227314487099647522 -0.29568365216255188
-0.311469465494155884 -0.148616790771484375 0.240931138396263123
0.476691752672195435 -0.245942294597625732 -0.247487306594848633
0.615625739097595215 -0.223025411367416382 -0.142350077629089355
-0.241882041096687317 0.0153906326740980148 0.0179078467190265656
-0.147605627775192261 0.240695178508758545 0.132643401622772217
-0.265581756830215454 0.0692333132028579712 0.00151322537567466497
0.379766941070556641 -0.265614748001098633 -0.340999692678451538
-0.329116255044937134 -0.141328662633895874 0.215340033173561096
-0.1635323166847229 -0.138288900256156921 -0.28427085280418396
-0.258658170700073242 -0.0567106753587722778 0.102749884128570557
-0.366736710071563721 -0.176958531141281128 0.271456360816955566
-0.225267410278320312 -0.0172228105366230011 -0.187394648790359497
-0.150290802121162415 0.0564329661428928375 -0.0735476240515708923
-0.141808286309242249 0.174951270222663879 0.0345453172922134399
-0.20583595335483551 -0.0424361303448677063 -0.293972820043563843
0.520796358585357666 -0.225394919514656067 -0.20977453887462616
-0.34944307804107666 -0.18421490490436554 0.234148353338241577
-0.0894519388675689697 -0.223231658339500427 -0.374729782342910767
-0.230753332376480103 0.0169582590460777283 -0.180879831314086914
-0.134629055857658386 0.111700937151908875 -0.105550572276115417
-0.0784198418259620667 -0.268888652324676514 -0.402535736560821533
-0.170271709561347961 0.0507982596755027771 -0.0976832658052444458
-0.254857450723648071 0.0813020840287208557 0.00702323345467448235
0.407190173864364624 -0.270747333765029907 -0.323633730411529541
-0.190211877226829529 -0.133524775505065918 -0.254590004682540894
-0.217850923538208008 0.0507887974381446838 -0.0143921896815299988
0.539099216461181641 -0.187639757990837097 -0.132265001535415649
0.610992968082427979 -0.190548479557037354 -0.226814761757850647
0.474715501070022583 -0.112988747656345367 -0.137766569852828979
0.416246950626373291 -0.199667870998382568 -0.356720507144927979
-0.389952182769775391 -0.243774935603141785 0.365978389978408813
0.361223369836807251 -0.25405651330947876 -0.345310807228088379
0.0152250137180089951 -0.237411752343177795 -0.349477022886276245
-0.101293571293354034 0.1520824134349823 -0.0237794145941734314
0.0464301370084285736 -0.198052152991294861 -0.366798222064971924
-0.206209972500801086 0.169563755393028259 0.126433432102203369
-0.0163334663957357407 -0.285366475582122803 -0.36831963062286377
-0.183653950691223145 -0.0241288729012012482 -0.181063041090965271
0.391708165407180786 -0.250131964683532715 -0.367894530296325684
0.315863877534866333 -0.265502482652664185 -0.347024589776992798
0.0270663909614086151 -0.205105885863304138 -0.386607378721237183
-0.106351427733898163 0.163055121898651123 -0.00563512789085507393
-0.228239148855209351 -0.0314929001033306122 -0.21560746431350708
-0.222988367080688477 0.179051607847213745 0.142258241772651672
0.596156954765319824 -0.164337784051895142 -0.148708850145339966
-0.2127581387758255 -0.0680569484829902649 -0.27005043625831604
-0.159075334668159485 -0.11395040899515152 -0.313700050115585327
0.175706088542938232 -0.20955212414264679 -0.341084450483322144
-0.212081953883171082 -0.00307249533943831921 -0.261453241109848022
-0.138922154903411865 0.126254305243492126 -0.0492647476494312286
-0.264311403036117554 0.0160752236843109131 0.0785674229264259338
-0.228883132338523865 -0.055108971893787384 -0.282717734575271606
0.496025711297988892 -0.245919719338417053 -0.250659555196762085
0.441722393035888672 -0.281180590391159058 -0.301217079162597656
-0.239138484001159668 0.0502065494656562805 -0.0739623382687568665
-0.0586025379598140717 -0.23763623833656311 -0.374106705188751221
-0.236535191535949707 -0.0718236640095710754 -0.267030894756317139
-0.364308714866638184 -0.157721176743507385 0.268034249544143677
-0.112247645854949951 -0.188778042793273926 -0.342898130416870117
0.574539363384246826 -0.267271816730499268 -0.177796393632888794
-0.171023041009902954 -0.0917429253458976746 -0.244806647300720215
-0.23240131139755249 0.0500014983117580414 -0.112774722278118134
-0.24274088442325592 0.0426136180758476257 -0.0258207712322473526
0.569429159164428711 -0.250050574541091919 -0.171907290816307068
0.467986464500427246 -0.245211541652679443 -0.308872759342193604
0.0539414174854755402 -0.221371665596961975 -0.39297640323638916
0.521890878677368164 -0.271459341049194336 -0.259703725576400757
0.458511948585510254 -0.239173874258995056 -0.267384111881256104
0.252125173807144165 -0.260443329811096191 -0.361700385808944702
0.556964457035064697 -0.254458785057067871 -0.256058335304260254
0.437260895967483521 -0.19653688371181488 -0.293567031621932983
-0.131528809666633606 -0.192198112607002258 -0.328912287950515747
0.545393168926239014 -0.117687858641147614 -0.0647327005863189697
-0.139561980962753296 0.139322355389595032 -0.0293581932783126831
0.559358119964599609 -0.140062391757965088 -0.1630125492811203
-0.200451254844665527 -0.052380487322807312 -0.255980968475341797
-0.191819265484809875 -0.0246075727045536041 -0.244356557726860046
-0.236480265855789185 0.0111194122582674026 -0.188715934753417969
-0.211244896054267883 -0.0506273098289966583 -0.251380801200866699
0.568225979804992676 -0.23296692967414856 -0.233753249049186707
-0.175220653414726257 -0.132813557982444763 -0.31562727689743042
-0.245164915919303894 0.0149143105372786522 -0.206248849630355835
0.256553143262863159 -0.272580593824386597 -0.359280824661254883
0.622716367244720459 -0.171213388442993164 -0.135834172368049622
-0.114817611873149872 -0.110062062740325928 -0.378542602062225342
-0.379262268543243408 -0.231817483901977539 0.369395345449447632
-0.365576565265655518 -0.203866362571716309 0.318076431751251221
-0.159243717789649963 0.187806367874145508 0.0833382382988929749
0.600986838340759277 -0.139883577823638916 -0.0708832442760467529
-0.242335543036460876 -0.0168967507779598236 -0.227410569787025452
-0.209050834178924561 -0.0198868829756975174 -0.244583830237388611
0.420308291912078857 -0.286570310592651367 -0.336039960384368896
-0.0208552535623311996 -0.19444681704044342 -0.39052465558052063
-0.304508090019226074 -0.0949744507670402527 0.19791729748249054
0.569910049438476562 -0.221396654844284058 -0.21521797776222229
-0.186022922396659851 0.0264763720333576202 -0.171427220106124878
-0.112343646585941315 0.164530456066131592 -0.00225728098303079605
-0.356590837240219116 -0.171256884932518005 0.250496447086334229
-0.27034035325050354 0.0503079742193222046 -0.11925092339515686
-0.217885792255401611 -0.00189894065260887146 -0.218778699636459351
-0.130355700850486755 -0.225097984075546265 -0.330284535884857178
-0.15590745210647583 -0.178090542554855347 -0.351640373468399048
-0.108692027628421783 -0.225269705057144165 -0.358083546161651611
-0.149737164378166199 0.252110272645950317 0.131482258439064026
-0.172650128602981567 0.0437596291303634644 -0.146255046129226685
0.558592379093170166 -0.186634555459022522 -0.153779312968254089
0.054343055933713913 -0.222460106015205383 -0.344403713941574097
0.563739955425262451 -0.130526602268218994 -0.139783516526222229
-0.285824835300445557 -0.0361859537661075592 0.0776648148894309998
-0.182543545961380005 -0.0147642297670245171 -0.188682347536087036
-0.122510313987731934 -0.190668448805809021 -0.321876496076583862
-0.204822123050689697 0.0889320001006126404 -0.0585265681147575378
0.570592880249023438 -0.220480486750602722 -0.209928736090660095
-0.242999091744422913 0.0585113354027271271 -0.0690037757158279419
0.506122112274169922 -0.233955100178718567 -0.193047583103179932
-0.197320818901062012 -0.0960951372981071472 -0.273331195116043091
-0.171651020646095276 -0.218187481164932251 -0.369908183813095093
0.202481925487518311 -0.259761303663253784 -0.341026812791824341
-0.179251611232757568 0.108008906245231628 -0.113237611949443817
-0.301363855600357056 -0.117647305130958557 0.227541953325271606
0.539630651473999023 -0.25492703914642334 -0.244315832853317261
0.563182532787322998 -0.123620294034481049 -0.134556397795677185
-0.259839743375778198 0.00501694204285740852 0.0654030442237854004
0.618547141551971436 -0.176108941435813904 -0.155181512236595154
-0.260309606790542603 0.0115143628790974617 -0.172138035297393799
0.557548880577087402 -0.125127077102661133 -0.16499723494052887
0.496849536895751953 -0.233711734414100647 -0.231004014611244202
0.0896682590246200562 -0.215448781847953796 -0.385534822940826416
-0.210448369383811951 -0.0901512056589126587 -0.280555069446563721
0.452636182308197021 -0.230346962809562683 -0.283575862646102905
-0.342555582523345947 -0.184714585542678833 0.25434499979019165
-0.143918633460998535 -0.173461109399795532 -0.383264273405075073
0.317574560642242432 -0.239787116646766663 -0.362150877714157104
0.525275886058807373 -0.200774133205413818 -0.192499160766601562
0.169541895389556885 -0.27375638484954834 -0.327019810676574707
-0.224760442972183228 0.065118446946144104 -0.158324152231216431
0.129611790180206299 -0.254976451396942139 -0.336847752332687378
-0.364708483219146729 -0.179137855768203735 0.294831335544586182
-0.123460441827774048 0.213754355907440186 -0.0185478329658508301
0.543726682662963867 -0.129651650786399841 -0.0982452258467674255
0.544604778289794922 -0.17838972806930542 -0.196877673268318176
0.529343307018280029 -0.231776297092437744 -0.250458031892776489
0.654137849807739258 -0.169176578521728516 -0.15712738037109375
-0.200941592454910278 0.187221750617027283 0.0903542265295982361
0.644015908241271973 -0.175924733281135559 -0.17188514769077301
-0.248161762952804565 0.0373262353241443634 0.0208994001150131226
-0.311895042657852173 -0.0980734899640083313 0.200932234525680542
0.470596879720687866 -0.191030651330947876 -0.215856984257698059
-0.246482998132705688 0.037707451730966568 -0.143684431910514832
-0.362887948751449585 -0.143763139843940735 0.235577180981636047
-0.192034274339675903 0.00521228648722171783 -0.200282007455825806
0.260213136672973633 -0.256535559892654419 -0.373787790536880493
-0.156494021415710449 0.253092020750045776 0.11097659170627594
-0.234308719635009766 0.0582426935434341431 -0.106950677931308746
0.578210353851318359 -0.23981042206287384 -0.226189553737640381
-0.202403917908668518 0.00125727918930351734 -0.204688474535942078
0.500977098941802979 -0.242609173059463501 -0.259897559881210327
0.216379538178443909 -0.279820889234542847 -0.351902008056640625
0.461147904396057129 -0.213573560118675232 -0.27281498908996582
0.500344216823577881 -0.234683111310005188 -0.238565921783447266
0.617993652820587158 -0.197330087423324585 -0.192770227789878845
-0.36339762806892395 -0.184147819876670837 0.310142040252685547
0.226592153310775757 -0.256024986505508423 -0.34303775429725647
-0.365138977766036987 -0.199319839477539062 0.302723079919815063
-0.210192829370498657 0.0208324287086725235 -0.132330149412155151
-0.207648158073425293 0.0120811164379119873 -0.132508248090744019
-0.121713161468505859 0.0946263298392295837 -0.0561812855303287506
-0.292001605033874512 -0.0781892240047454834 0.104435481131076813
0.35758131742477417 -0.276042640209197998 -0.410104483366012573
0.0641603767871856689 -0.207234695553779602 -0.447779089212417603
-0.150352492928504944 0.235003367066383362 0.171001791954040527
-0.213850721716880798 -0.0125860245898365974 -0.203789517283439636
0.0222394596785306931 -0.24482494592666626 -0.375744938850402832
-0.0700123012065887451 0.194548904895782471 -0.0140003925189375877
-0.230258405208587646 0.0710719078779220581 -0.0661866068840026855
-0.17500711977481842 -0.121848374605178833 -0.339870840311050415
-0.364454895257949829 -0.199045568704605103 0.332701593637466431
0.385451644659042358 -0.213471651077270508 -0.343098998069763184
-0.174529999494552612 -0.128274396061897278 -0.296428650617599487
-0.287615418434143066 -0.0752379372715950012 0.121720500290393829
-0.0332647860050201416 -0.228145837783813477 -0.373888552188873291
-0.348631352186203003 -0.206469044089317322 0.323375135660171509
-0.195144593715667725 -0.147569358348846436 -0.33706328272819519
-0.101942099630832672 0.171720936894416809 0.00985074322670698166
-0.216242238879203796 0.0928993746638298035 -0.124079383909702301
0.386936485767364502 -0.255591809749603271 -0.318576663732528687
-0.0883089452981948853 0.149993553757667542 -0.00949598941951990128
-0.337111979722976685 -0.185484856367111206 0.242615386843681335
0.424813956022262573 -0.219777226448059082 -0.301808625459671021
0.12111971527338028 -0.251850813627243042 -0.388230413198471069
0.01651020348072052 -0.226593911647796631 -0.380352139472961426
-0.242378354072570801 0.0417543351650238037 0.0350937321782112122
-0.117934055626392365 0.125576913356781006 -0.0247532110661268234
-0.205279558897018433 -0.0615204945206642151 -0.229038596153259277
-0.0875196456909179688 -0.254728078842163086 -0.417907297611236572
0.5460013747215271 -0.248402759432792664 -0.225620642304420471
-0.186827287077903748 0.00443439837545156479 -0.214042887091636658
-0.390373915433883667 -0.193708851933479309 0.304717898368835449
0.125450104475021362 -0.24157850444316864 -0.391042411327362061
0.428894370794296265 -0.238056421279907227 -0.289502263069152832
-0.282994896173477173 -0.0993290990591049194 0.167101681232452393
-0.0444792322814464569 -0.221804872155189514 -0.351536929607391357
0.498201280832290649 -0.254760801792144775 -0.242523416876792908
0.563033759593963623 -0.210237264633178711 -0.138137593865394592
0.391641229391098022 -0.254601120948791504 -0.302479207515716553
-0.254475891590118408 0.017480015754699707 0.0148677211254835129
-0.289207339286804199 -0.118554621934890747 0.11948307603597641
0.532364010810852051 -0.182993575930595398 -0.159499779343605042
-0.158550158143043518 -0.234485164284706116 -0.386099368333816528
-0.183558002114295959 -0.0938761159777641296 -0.278454452753067017
-0.193351909518241882 -0.180211290717124939 -0.336705446243286133
-0.104486681520938873 0.152858197689056396 -0.00278005492873489857
-0.0516695678234100342 -0.185720294713973999 -0.353776276111602783
-0.302005738019943237 -0.0649139806628227234 0.0994931235909461975
0.289350628852844238 -0.276560217142105103 -0.36160239577293396
-0.196204274892807007 0.0351659581065177917 -0.20602785050868988
-0.250115692615509033 -0.0472318679094314575 0.0937650874257087708
-0.227128103375434875 -0.0867232754826545715 -0.300765156745910645
0.117021128535270691 -0.287598848342895508 -0.364811420440673828
-0.210402011871337891 -0.0191520750522613525 -0.205212041735649109
0.587598681449890137 -0.162839561700820923 -0.148581832647323608
-0.182657554745674133 0.072587721049785614 -0.0469707772135734558
0.34851488471031189 -0.271825343370437622 -0.298047930002212524
-0.290184915065765381 -0.111893996596336365 0.148726373910903931
-0.22170373797416687 0.00705940183252096176 -0.171832665801048279
-0.258073270320892334 0.0664854049682617188 0.0268266685307025909
-0.271463513374328613 -0.0212602335959672928 0.0866526141762733459
0.482742518186569214 -0.241402283310890198 -0.275975406169891357
0.140329405665397644 -0.237003937363624573 -0.359050124883651733
0.525527119636535645 -0.226091891527175903 -0.257248729467391968
-0.115608721971511841 0.143816113471984863 -0.0797386914491653442
0.00295060849748551846 -0.222449526190757751 -0.383692800998687744
-0.339979112148284912 -0.185869857668876648 0.289500623941421509
-0.346057504415512085 -0.163904950022697449 0.253577917814254761
-0.0510264746844768524 -0.266794264316558838 -0.398420393466949463
-0.184829846024513245 0.0713372081518173218 -0.107364758849143982
-0.189597874879837036 -0.106396056711673737 -0.298901230096817017
0.440814733505249023 -0.262154072523117065 -0.272116631269454956
0.0639231875538825989 -0.220185130834579468 -0.353187710046768188
-0.174490615725517273 0.19131411612033844 0.065076872706413269
-0.142811551690101624 0.254691183567047119 0.122715286910533905
-0.210298493504524231 0.0502960532903671265 -0.104250021278858185
-0.252453237771987915 -0.0363152772188186646 0.0661767423152923584
-0.163449063897132874 0.0443761982023715973 -0.163494676351547241
-0.113364502787590027 0.232908889651298523 0.0612131357192993164
0.528550326824188232 -0.241783261299133301 -0.243045404553413391
-0.213313400745391846 0.0317655056715011597 -0.0572625361382961273
0.410444945096969604 -0.226262763142585754 -0.338799238204956055
0.378117501735687256 -0.252405762672424316 -0.326422989368438721
-0.194296672940254211 0.0978928133845329285 -0.0813085809350013733
0.446772098541259766 -0.239362344145774841 -0.277106672525405884
0.428131967782974243 -0.238819584250450134 -0.299058765172958374
-0.191410258412361145 0.0408497899770736694 -0.16428983211517334
-0.160465896129608154 0.0609986521303653717 -0.088420964777469635
0.551644623279571533 -0.275433152914047241 -0.205528900027275085
-0.183824405074119568 0.0131656890735030174 -0.170592576265335083
0.356367766857147217 -0.265924721956253052 -0.265145152807235718
-0.200026139616966248 0.0230647679418325424 -0.195261672139167786
-0.164348006248474121 -0.107880011200904846 -0.338755011558532715
-0.19475024938583374 -0.0366290397942066193 -0.159691452980041504
-0.176380589604377747 -0.0591732040047645569 -0.246270939707756042
0.0715252384543418884 -0.211527615785598755 -0.379918843507766724
0.0478644929826259613 -0.199586361646652222 -0.398346304893493652
-0.331199735403060913 -0.134580448269844055 0.22930261492729187
0.000280379637842997909 -0.194254770874977112 -0.408951312303543091
-0.351528644561767578 -0.19426003098487854 0.290490537881851196
-0.201972410082817078 0.0432791002094745636 -0.0256975367665290833
-0.10345575213432312 -0.194288790225982666 -0.317075163125991821
-0.195341065526008606 0.0207705777138471603 -0.165965080261230469
-0.235714107751846313 0.00923901330679655075 0.0644372180104255676
0.439461976289749146 -0.256844818592071533 -0.309774994850158691
0.40957874059677124 -0.280825257301330566 -0.321903318166732788
-0.0952605083584785461 -0.21906629204750061 -0.358083128929138184
0.378813087940216064 -0.276467442512512207 -0.318597763776779175
0.561683714389801025 -0.12526218593120575 -0.159562051296234131
-0.117948122322559357 0.162314996123313904 -0.020610688254237175
-0.202862769365310669 -0.0434420593082904816 -0.256769835948944092
-0.135705918073654175 0.107604525983333588 -0.05719766765832901
0.51739192008972168 -0.221727490425109863 -0.321690887212753296
-0.347554713487625122 -0.179258838295936584 0.261342078447341919
0.40452730655670166 -0.265023022890090942 -0.373464077711105347
0.334164977073669434 -0.303246945142745972 -0.368518292903900146
0.121507637202739716 -0.201719239354133606 -0.388646334409713745
0.53267824649810791 -0.227072939276695251 -0.198089838027954102
-0.224371165037155151 0.00659417873248457909 0.0624279007315635681
0.023397514596581459 -0.210236623883247375 -0.358065873384475708
-0.0606285780668258667 0.150219589471817017 -0.0388144887983798981
-0.157858878374099731 -0.0727488920092582703 -0.338185548782348633
0.506219863891601562 -0.226191490888595581 -0.258071839809417725
-0.068559989333152771 0.212172925472259521 0.0347035154700279236
-0.307156920433044434 -0.0988550484180450439 0.112173929810523987
-0.202021569013595581 -0.101230919361114502 -0.278458267450332642
0.61256110668182373 -0.1366921067237854 -0.103118769824504852
-0.151638507843017578 0.252387136220932007 0.15848858654499054
-0.168381839990615845 0.0608906522393226624 -0.191248789429664612
-0.136446580290794373 0.232132896780967712 0.125864416360855103
0.60017549991607666 -0.128748998045921326 -0.143222600221633911
-0.187487319111824036 0.169057011604309082 0.0855856537818908691
-0.10591048002243042 0.136199325323104858 -0.0152253909036517143
-0.200170934200286865 -0.0485191717743873596 -0.167937591671943665
-0.339204519987106323 -0.118004247546195984 0.216493278741836548
0.583437323570251465 -0.14828413724899292 -0.101507797837257385
-0.111951783299446106 0.166156172752380371 -0.0350866243243217468
-0.229038655757904053 0.0667696744203567505 -0.0940695777535438538
0.541388630867004395 -0.241473466157913208 -0.269660979509353638
-0.269603133201599121 0.0525526627898216248 0.000513869512360543013
-0.304795682430267334 -0.103935584425926208 0.191234305500984192
0.570179104804992676 -0.121291182935237885 -0.170956924557685852
-0.287799447774887085 -0.0942927375435829163 0.16775926947593689
0.165629193186759949 -0.256953537464141846 -0.412145107984542847
0.335867434740066528 -0.258953094482421875 -0.378206312656402588
-0.275729149580001831 -0.0199447721242904663 0.12797178328037262
0.176897406578063965 -0.268342852592468262 -0.369349479675292969
-0.343513906002044678 -0.18035675585269928 0.305609762668609619
0.486056804656982422 -0.245034933090209961 -0.252018600702285767
0.479977697134017944 -0.251913607120513916 -0.313330501317977905
0.311109840869903564 -0.219508111476898193 -0.38954886794090271
0.559196174144744873 -0.18899989128112793 -0.157761812210083008
-0.205466017127037048 -0.0415153093636035919 -0.202413469552993774
-0.176528051495552063 0.213522762060165405 0.13920825719833374
-0.14234142005443573 0.13072320818901062 -0.0986856818199157715
-0.308883249759674072 -0.0711817517876625061 0.145725756883621216
-0.23578198254108429 0.0587286241352558136 -0.131388768553733826
-0.242862731218338013 0.0125588849186897278 -0.180586442351341248
-0.254797577857971191 0.0524247810244560242 -0.0651376619935035706
-0.11525929719209671 -0.222019597887992859 -0.36768871545791626
-0.278372496366500854 0.0347244627773761749 0.00232573389075696468
0.608815670013427734 -0.133331239223480225 -0.107201725244522095
-0.154491975903511047 -0.123965054750442505 -0.342383444309234619
-0.0472438037395477295 0.161388114094734192 0.0156961791217327118
0.387424886226654053 -0.269414126873016357 -0.342675685882568359
-0.26885145902633667 0.0318092256784439087 0.0533819906413555145
0.535127043724060059 -0.205887362360954285 -0.182789161801338196
0.284771740436553955 -0.25643649697303772 -0.301354438066482544
0.522034943103790283 -0.232914552092552185 -0.251129657030105591
-0.327960491180419922 -0.129656478762626648 0.234954938292503357
-0.247242137789726257 0.0478993542492389679 0.0355732925236225128
-0.366050899028778076 -0.251150906085968018 0.38034936785697937
-0.125902339816093445 0.100848563015460968 -0.0316460244357585907
-0.0775102153420448303 0.17893025279045105 0.00299818767234683037
-0.223848402500152588 0.0670251324772834778 -0.0589879266917705536
-0.233225822448730469 -0.0283666830509901047 -0.244924232363700867
0.334861189126968384 -0.270650625228881836 -0.339823722839355469
-0.271343082189559937 0.0285707898437976837 0.0238030590116977692
-0.0987725257873535156 -0.253851383924484253 -0.351532638072967529
-0.183919936418533325 -0.220716223120689392 -0.321249932050704956
-0.189821422100067139 0.0596986301243305206 -0.212775483727455139
-0.165052473545074463 -0.171228855848312378 -0.307956069707870483
0.383581370115280151 -0.257473349571228027 -0.338408678770065308
0.578490674495697021 -0.223589077591896057 -0.181059032678604126
0.405974268913269043 -0.256311595439910889 -0.352216988801956177
-0.0861948654055595398 -0.132552966475486755 -0.315251022577285767
0.343326359987258911 -0.218997940421104431 -0.339771866798400879
0.495842635631561279 -0.260926634073257446 -0.281672626733779907
-0.287597358226776123 -0.0561419352889060974 0.0967854857444763184
0.480551958084106445 -0.238459274172782898 -0.262749075889587402
-0.166823446750640869 -0.153452277183532715 -0.300909191370010376
-0.214166224002838135 -0.0111540844663977623 -0.20323413610458374
-0.250148683786392212 0.0205906238406896591 0.0629699975252151489
-0.26199418306350708 -0.0259665455669164658 0.0613123439252376556
0.0790167227387428284 -0.246036112308502197 -0.392865389585494995
-0.372660249471664429 -0.245946675539016724 0.360999315977096558
-0.170051783323287964 -0.167724043130874634 -0.354435503482818604
-0.0442570559680461884 -0.218558043241500854 -0.38740694522857666
-0.247817426919937134 0.0365169644355773926 0.0373728722333908081
-0.275989353656768799 0.0279980059713125229 0.00145619444083422422
-0.231565564870834351 0.0594606176018714905 -0.152564257383346558
-0.133055686950683594 -0.222377866506576538 -0.361960083246231079
0.00948724430054426193 -0.18880017101764679 -0.37334364652633667
-0.141633853316307068 0.248836338520050049 0.110941976308822632
-0.11255180835723877 0.205187231302261353 0.0277583654969930649
-0.120114877820014954 0.178510114550590515 0.0232341531664133072
-0.129193171858787537 0.145580500364303589 0.0261698681861162186
0.335274338722229004 -0.25526157021522522 -0.294769495725631714
0.595800697803497314 -0.159924969077110291 -0.165857553482055664
-0.136345759034156799 -0.120992735028266907 -0.333438068628311157
-0.185029402375221252 0.166069477796554565 0.0765817239880561829
-0.252603828907012939 0.023195512592792511 0.0132384253665804863
0.457168638706207275 -0.279396414756774902 -0.265112459659576416
0.511510550975799561 -0.247762292623519897 -0.274493545293807983
-0.263533085584640503 -0.0576472207903862 0.116522252559661865
0.524595081806182861 -0.258187472820281982 -0.287032514810562134
-0.21008533239364624 0.183735474944114685 0.0959720611572265625
-0.332893043756484985 -0.177863746881484985 0.24674580991268158
0.634256541728973389 -0.151571884751319885 -0.172903239727020264
0.571914076805114746 -0.213112354278564453 -0.216568499803543091
0.524944424629211426 -0.244764998555183411 -0.232330068945884705
0.181507855653762817 -0.231836900115013123 -0.379327148199081421
-0.230080515146255493 0.0813575536012649536 0.00906705670058727264
-0.164086386561393738 -0.0713232383131980896 -0.286377102136611938
0.317250341176986694 -0.267844319343566895 -0.317010343074798584
0.12943287193775177 -0.240955621004104614 -0.385723084211349487
-0.240618109703063965 -0.0442371256649494171 0.0667336657643318176
-0.14660327136516571 -0.187040165066719055 -0.38775518536567688
0.57287144660949707 -0.19137120246887207 -0.226746276021003723
-0.209044411778450012 0.155624464154243469 0.124006062746047974
-0.0778070986270904541 0.147278070449829102 0.0262938383966684341
0.554454624652862549 -0.154016032814979553 -0.140115439891815186
-0.343281775712966919 -0.125708281993865967 0.192725494503974915
-0.316830337047576904 -0.149550601840019226 0.221045568585395813
0.610542476177215576 -0.124765463173389435 -0.111581452190876007
-0.209804564714431763 0.0243073012679815292 -0.21208132803440094
0.0833998173475265503 -0.250526547431945801 -0.362299650907516479
-0.263227224349975586 0.0233652405440807343 0.0837226435542106628
0.578157246112823486 -0.194733485579490662 -0.17675355076789856
