ply
format ascii 1.0
element vertex 752
comment vertices
property float x
property float y
property float z
end_header
0.743414461612701416 -0.0181675739586353302 0.211604997515678406
0.490964919328689575 0.269217818975448608 0.354879438877105713
0.785440623760223389 0.0982664227485656738 0.0894464626908302307
0.837303638458251953 0.0282566733658313751 0.205767795443534851
0.817343473434448242 0.0685970261693000793 0.120231948792934418
-0.0221616681665182114 -0.58481752872467041 0.346187025308609009
0.55199134349822998 0.205372780561447144 0.272464901208877563
0.705464184284210205 -0.0833737775683403015 0.257230609655380249
0.478035390377044678 0.233821481466293335 0.372652888298034668
0.780566871166229248 -0.0376328900456428528 0.242079198360443115
0.510476648807525635 0.261965572834014893 0.351075977087020874
0.807884633541107178 0.0408757701516151428 0.129667550325393677
0.431464523077011108 0.280043065547943115 0.46074029803276062
0.300585955381393433 0.238308757543563843 0.482455730438232422
0.63341820240020752 0.212576255202293396 0.196657568216323853
0.361226826906204224 -0.487857788801193237 0.410418450832366943
0.34797629714012146 -0.48925444483757019 0.37553444504737854
0.741875410079956055 -0.00864314008504152298 0.275679856538772583
-0.310084551572799683 -0.553239166736602783 0.358534097671508789
0.714027762413024902 -0.174371659755706787 0.327545493841171265
0.454823464155197144 0.260752171277999878 0.361013501882553101
0.696152746677398682 -0.211964741349220276 0.314879834651947021
0.0563357844948768616 0.0521997697651386261 0.617681384086608887
0.63540494441986084 -0.356963753700256348 0.360568732023239136
0.126647323369979858 -0.555908560752868652 0.392473608255386353
0.666939914226531982 -0.0144962221384048462 0.37315678596496582
0.330222070217132568 0.228196144104003906 0.424825310707092285
0.665290594100952148 -0.0255494285374879837 0.200807079672813416
0.382974088191986084 0.326181083917617798 0.344706058502197266
0.184560596942901611 0.106782622635364532 0.533816635608673096
0.784860134124755859 -0.0500386692583560944 0.248427003622055054
0.661952853202819824 -0.173862308263778687 0.292938739061355591
0.705720841884613037 0.119474858045578003 0.177757099270820618
0.397822409868240356 -0.442340821027755737 0.396730780601501465
0.780677616596221924 0.0148260900750756264 0.201587572693824768
0.578273236751556396 -0.314703583717346191 0.377995222806930542
0.5989035964012146 -0.33797881007194519 0.389779418706893921
0.649587273597717285 -0.314423918724060059 0.315407723188400269
0.786340832710266113 0.0343970172107219696 0.161810815334320068
0.0713677778840065002 -0.567822694778442383 0.376286059617996216
0.625136017799377441 0.194447368383407593 0.220583453774452209
0.585203588008880615 0.194895938038825989 0.297926634550094604
0.660360157489776611 0.131485775113105774 0.177062869071960449
0.645632445812225342 0.160978183150291443 0.207120776176452637
0.706089317798614502 0.129758566617965698 0.179858073592185974
0.674775779247283936 -0.221785232424736023 0.336864948272705078
0.539422929286956787 0.228474155068397522 0.303950518369674683
0.7800750732421875 0.102518074214458466 0.18096257746219635
0.202080890536308289 -0.52214580774307251 0.393382877111434937
-0.0116782095283269882 -0.0133712505921721458 0.619297802448272705
0.716803431510925293 -0.123131811618804932 0.303521186113357544
-0.076151236891746521 -0.587943971157073975 0.376217931509017944
0.638940930366516113 0.178411945700645447 0.235406965017318726
0.489725321531295776 0.227931037545204163 0.402305901050567627
0.788521647453308105 -0.164829418063163757 0.306212097406387329
0.235708713531494141 0.184095963835716248 0.494614660739898682
0.75522303581237793 -0.19491007924079895 0.344116926193237305
0.753901064395904541 0.0855309143662452698 0.0906489193439483643
0.80170053243637085 0.0511608831584453583 0.118753261864185333
0.475921094417572021 -0.447564423084259033 0.402640968561172485
0.280898571014404297 -0.493467420339584351 0.448476254940032959
0.677795946598052979 -0.252319544553756714 0.294099569320678711
0.533232808113098145 0.229400232434272766 0.302006751298904419
0.501061320304870605 -0.39785042405128479 0.376108020544052124
0.677949786186218262 0.116606719791889191 0.182776361703872681
0.744554698467254639 0.0016278440598398447 0.22143089771270752
0.185081198811531067 0.150692403316497803 0.529263794422149658
0.514329314231872559 -0.36324039101600647 0.356611728668212891
0.119485817849636078 0.126193135976791382 0.542293965816497803
0.75703662633895874 -0.0527404136955738068 0.184494048357009888
0.320978671312332153 0.238976389169692993 0.47363591194152832
0.749710500240325928 -0.0859408974647521973 0.267036467790603638
0.492279469966888428 -0.445727258920669556 0.390491068363189697
0.742491602897644043 0.085351206362247467 0.0751888379454612732
0.198016822338104248 0.135564252734184265 0.565571129322052002
0.701972365379333496 -0.168226644396781921 0.327835291624069214
0.739002823829650879 0.0180369336158037186 0.257400870323181152
0.696512043476104736 0.110624015331268311 0.190160512924194336
0.246963277459144592 -0.545032501220703125 0.396390050649642944
0.24022260308265686 0.19314420223236084 0.523303985595703125
0.775105774402618408 0.0847792550921440125 0.1214771568775177
0.538393974304199219 -0.366985470056533813 0.373998701572418213
0.744147360324859619 -0.0561051331460475922 0.266066521406173706
0.390656024217605591 0.264065206050872803 0.374717831611633301
0.177239865064620972 0.173280343413352966 0.518155813217163086
0.836263895034790039 0.0823421850800514221 0.0520046576857566833
0.412836372852325439 0.279157698154449463 0.33377838134765625
0.122862718999385834 0.105002522468566895 0.569562852382659912
0.799189925193786621 0.106935545802116394 0.101372949779033661
0.192529499530792236 0.137409314513206482 0.60059058666229248
0.68944847583770752 -0.0113165723159909248 0.37808459997177124
0.823558986186981201 0.0199663750827312469 0.122309789061546326
0.587600827217102051 -0.335870176553726196 0.370416104793548584
0.564507901668548584 0.235543236136436462 0.307974100112915039
0.796488285064697266 0.0695594027638435364 0.0967655330896377563
0.63453829288482666 -0.270436227321624756 0.396877408027648926
0.696416318416595459 -0.19439302384853363 0.31071808934211731
0.839431524276733398 0.0485961176455020905 0.163794606924057007
-0.276916623115539551 -0.569023609161376953 0.366041958332061768
0.405578434467315674 0.303903192281723022 0.325813591480255127
0.823034822940826416 0.0732737407088279724 0.0439779944717884064
0.763575375080108643 0.126421287655830383 0.145465880632400513
0.804735064506530762 0.0799612998962402344 0.109949246048927307
0.79088127613067627 0.0473527722060680389 0.0833046957850456238
0.764336943626403809 0.0294091701507568359 0.139297559857368469
0.45514562726020813 -0.430602341890335083 0.385369420051574707
0.795280218124389648 -0.00204648077487945557 0.188569605350494385
0.792290031909942627 -0.0835610702633857727 0.265669703483581543
0.308383584022521973 0.197883293032646179 0.466661393642425537
0.773281335830688477 0.0790221467614173889 0.0653319954872131348
0.715185105800628662 -0.0970564186573028564 0.269437015056610107
0.295152515172958374 -0.513788342475891113 0.427752584218978882
0.505203604698181152 -0.335242122411727905 0.465971291065216064
0.0879556015133857727 0.0541090592741966248 0.604617118835449219
0.72856372594833374 -0.128039315342903137 0.326062917709350586
0.758016765117645264 0.113396234810352325 0.204750284552574158
0.768028736114501953 -0.219953045248985291 0.322596639394760132
0.542362511157989502 0.239920631051063538 0.310702383518218994
0.335708856582641602 -0.466444075107574463 0.41525229811668396
0.747019588947296143 0.068717464804649353 0.257016509771347046
0.790255606174468994 0.0973725542426109314 0.0820440873503684998
0.758239448070526123 -0.0821072757244110107 0.196033880114555359
0.396855622529983521 0.268385350704193115 0.405740082263946533
0.81951373815536499 0.0626533403992652893 0.125590667128562927
0.559692621231079102 0.236074253916740417 0.268776535987854004
0.616582632064819336 0.191263392567634583 0.218752309679985046
0.743353664875030518 -0.00673371506854891777 0.22075335681438446
0.656942248344421387 0.206398949027061462 0.250415623188018799
0.658994853496551514 -0.0067076939158141613 0.399873912334442139
0.705975592136383057 -0.189446896314620972 0.301972031593322754
0.748173296451568604 -0.20089586079120636 0.321415632963180542
0.798681497573852539 -0.00103627773933112621 0.264148026704788208
0.208452299237251282 0.191215544939041138 0.481433689594268799
0.660867393016815186 -0.0118254171684384346 0.411852002143859863
0.492390871047973633 -0.349308282136917114 0.378221660852432251
0.604803204536437988 0.225371450185775757 0.262717783451080322
0.716743350028991699 -0.126782447099685669 0.293531477451324463
0.795608103275299072 -0.00840604491531848907 0.238692179322242737
0.811427652835845947 0.0762115940451622009 0.171629786491394043
0.765686213970184326 -0.0282019581645727158 0.284080654382705688
0.332318574190139771 -0.48126569390296936 0.377973616123199463
0.737882256507873535 0.0898871049284934998 0.136193737387657166
0.494301348924636841 -0.412356287240982056 0.410448670387268066
0.831881284713745117 0.0664418786764144897 0.111971959471702576
0.622553765773773193 -0.0563394911587238312 0.18553963303565979
0.829564750194549561 0.068347446620464325 0.0777155980467796326
0.760410666465759277 0.0685729905962944031 0.0718584060668945312
0.741587281227111816 -0.0104877045378088951 0.219406455755233765
0.38042721152305603 -0.434771239757537842 0.383277714252471924
0.678637087345123291 -0.219201892614364624 0.324514657258987427
0.626447319984436035 -0.320594847202301025 0.356030136346817017
0.78147357702255249 -0.00287819444201886654 0.187328562140464783
0.797792911529541016 0.0541358143091201782 0.0939355939626693726
0.591590642929077148 -0.332090437412261963 0.391568034887313843
0.689627170562744141 -0.0283426437526941299 0.361998260021209717
0.695413768291473389 -0.00703724008053541183 0.202802717685699463
0.704661667346954346 0.131671562790870667 0.231161460280418396
0.812538623809814453 -0.0414188914000988007 0.276902347803115845
0.599412620067596436 0.255943983793258667 0.243491336703300476
0.572288095951080322 0.197523504495620728 0.297920465469360352
0.269153892993927002 0.228893131017684937 0.459037482738494873
0.756915926933288574 -0.0612108893692493439 0.204046085476875305
0.682424962520599365 -0.107108958065509796 0.24975934624671936
0.686351597309112549 0.0855026021599769592 0.169691026210784912
0.53674006462097168 0.257792890071868896 0.317417651414871216
0.386382699012756348 0.303354531526565552 0.335411876440048218
0.594564974308013916 0.224673673510551453 0.3293628990650177
0.399743705987930298 0.271799445152282715 0.365579187870025635
0.0887076482176780701 0.0609674714505672455 0.611290216445922852
0.832326233386993408 0.0753351598978042603 0.0632842183113098145
0.0860807299613952637 0.0861114263534545898 0.572983920574188232
0.699032187461853027 0.128392487764358521 0.177398517727851868
0.731689393520355225 -0.231870546936988831 0.335980474948883057
0.76423346996307373 0.0622163303196430206 0.147591754794120789
0.705560207366943359 0.0910517200827598572 0.16684335470199585
0.828922152519226074 0.0608190745115280151 0.166175708174705505
0.767889201641082764 -0.132710456848144531 0.263551503419876099
0.567763686180114746 -0.324060738086700439 0.418737679719924927
0.742042005062103271 -0.156021162867546082 0.288656920194625854
0.719549775123596191 -0.143986329436302185 0.313380777835845947
0.62704700231552124 -0.295451253652572632 0.334910988807678223
0.492965549230575562 -0.397924184799194336 0.375647455453872681
0.817482709884643555 0.0427207350730895996 0.213309317827224731
0.424129307270050049 0.306440055370330811 0.320622473955154419
0.799634039402008057 0.0829066112637519836 0.0567104332149028778
0.157533407211303711 0.137476339936256409 0.559474587440490723
0.295142799615859985 0.249599188566207886 0.430523037910461426
0.715133428573608398 -0.158644244074821472 0.296272158622741699
-0.295930624008178711 -0.560873806476593018 0.344948619604110718
0.524894058704376221 0.260087430477142334 0.360520541667938232
0.705124974250793457 -0.177669316530227661 0.337970852851867676
0.352819740772247314 0.249934941530227661 0.461756795644760132
0.474400192499160767 0.264853596687316895 0.290102690458297729
0.772495687007904053 -0.16108153760433197 0.318945109844207764
0.0599151328206062317 0.0429677888751029968 0.601521790027618408
0.729041159152984619 0.103619299829006195 0.188233032822608948
0.115491703152656555 0.0533478669822216034 0.591576993465423584
0.530943632125854492 0.271445751190185547 0.292871356010437012
0.556847512722015381 -0.38164934515953064 0.396331220865249634
0.528605401515960693 0.265213727951049805 0.32593846321105957
0.840703368186950684 0.0839820876717567444 0.198932379484176636
0.584230244159698486 -0.366492182016372681 0.35918813943862915
0.0439287684857845306 -0.592047274112701416 0.366872966289520264
0.714598715305328369 0.000563431414775550365 0.280368983745574951
0.622461199760437012 -0.215115174651145935 0.316839367151260376
0.735524356365203857 0.00195185176562517881 0.289363443851470947
0.717123150825500488 -0.0365777723491191864 0.313921868801116943
0.640915095806121826 -0.253184616565704346 0.352353990077972412
0.772609591484069824 -0.0611265860497951508 0.241696745157241821
0.290947228670120239 0.248969137668609619 0.484374582767486572
0.747941195964813232 0.0972789600491523743 0.155396044254302979
0.0943974032998085022 0.05529765784740448 0.600162625312805176
0.835931479930877686 0.0404793322086334229 0.166646644473075867
0.218812122941017151 -0.511074721813201904 0.397187352180480957
0.257089614868164062 0.210845679044723511 0.523356497287750244
0.330631732940673828 0.246051579713821411 0.437067538499832153
0.622952580451965332 0.220674306154251099 0.205365747213363647
0.417290866374969482 0.289015442132949829 0.398435860872268677
0.388905882835388184 0.263269811868667603 0.402113646268844604
0.766059935092926025 0.10727374255657196 0.22082926332950592
0.233526766300201416 0.19273298978805542 0.489651203155517578
0.664713621139526367 -0.174006983637809753 0.288811773061752319
0.20222744345664978 -0.554855525493621826 0.379258096218109131
0.229979723691940308 0.184477999806404114 0.514298319816589355
0.191997185349464417 0.178085595369338989 0.535584688186645508
0.769209444522857666 0.0106775294989347458 0.201500996947288513
0.739117145538330078 0.0992541089653968811 0.0982522070407867432
0.724769175052642822 -0.0111617017537355423 0.375257134437561035
0.667669594287872314 0.00133198814000934362 0.391332924365997314
0.691042661666870117 -0.220637381076812744 0.325564414262771606
0.784589409828186035 0.00308945565484464169 0.299101263284683228
0.760859668254852295 0.130730658769607544 0.0970178097486495972
0.505133867263793945 -0.373388916254043579 0.410179108381271362
0.185537368059158325 0.0828986763954162598 0.558809399604797363
0.60103374719619751 -0.288276225328445435 0.364633262157440186
0.789153337478637695 -0.0295730363577604294 0.216285139322280884
0.596723437309265137 0.154774561524391174 0.173528701066970825
0.587322413921356201 -0.314312070608139038 0.374592602252960205
0.791838526725769043 0.0951130613684654236 0.0380719453096389771
0.827494919300079346 0.092293962836265564 0.0941964834928512573
0.615560948848724365 -0.327529221773147583 0.403789132833480835
0.324896812438964844 0.240405187010765076 0.469818562269210815
0.770979464054107666 -0.0368476621806621552 0.180535942316055298
0.745005011558532715 -0.0710645541548728943 0.271373152732849121
0.725610494613647461 0.00578788900747895241 0.29265141487121582
0.657261073589324951 0.149709239602088928 0.20333138108253479
0.49353492259979248 -0.38078656792640686 0.323015689849853516
0.523247480392456055 0.255477845668792725 0.335346132516860962
0.566987156867980957 0.250480473041534424 0.283276766538619995
0.420110970735549927 -0.432008177042007446 0.403456538915634155
0.596929967403411865 0.198304817080497742 0.216757699847221375
0.539760470390319824 0.273039191961288452 0.374850839376449585
0.366499036550521851 0.311255186796188354 0.339833378791809082
0.596632421016693115 -0.249310731887817383 0.296541452407836914
0.563946723937988281 0.21028938889503479 0.266646653413772583
0.673030257225036621 -0.253068774938583374 0.338068187236785889
0.0747970268130302429 0.079871542751789093 0.585871338844299316
0.77759861946105957 0.0241250991821289062 0.192952245473861694
0.583870947360992432 0.216454997658729553 0.275346249341964722
0.64740985631942749 0.155912652611732483 0.158200874924659729
0.471576601266860962 0.256384313106536865 0.361937999725341797
0.787123262882232666 -0.0282512400299310684 0.24337141215801239
0.810440421104431152 0.0707277357578277588 0.0387062951922416687
0.764309883117675781 0.0112557541579008102 0.165936946868896484
0.643549919128417969 0.164568215608596802 0.203521177172660828
0.778126657009124756 0.0825963839888572693 0.114096410572528839
0.800241708755493164 -0.00931424181908369064 0.148810848593711853
0.407968968152999878 -0.464629441499710083 0.413206100463867188
0.705512464046478271 0.128275871276855469 0.230011999607086182
0.655740320682525635 0.165551990270614624 0.175143301486968994
0.829562604427337646 0.00187439972069114447 0.179604768753051758
0.707850933074951172 -0.114343725144863129 0.300333291292190552
0.403378725051879883 0.255061835050582886 0.377682507038116455
0.619290471076965332 -0.215157672762870789 0.353135854005813599
0.674978256225585938 -0.0163998976349830627 0.443649411201477051
0.589431464672088623 -0.320971429347991943 0.361462533473968506
0.805950939655303955 0.0113856177777051926 0.187243521213531494
0.794897317886352539 -0.016064746305346489 0.235479786992073059
0.560293316841125488 0.232508376240730286 0.324693918228149414
0.597552597522735596 -0.306178838014602661 0.36718904972076416
0.385327905416488647 0.295867800712585449 0.404470860958099365
0.786551237106323242 -0.0726844221353530884 0.250023007392883301
0.272924154996871948 0.218318253755569458 0.484159111976623535
0.498071610927581787 0.255376756191253662 0.299224972724914551
0.580850183963775635 0.230869695544242859 0.288624227046966553
0.162750184535980225 -0.557964563369750977 0.375750124454498291
0.676424264907836914 -0.23600304126739502 0.328140795230865479
0.78975754976272583 0.0603502877056598663 0.0815612748265266418
0.392827779054641724 0.297661960124969482 0.328786134719848633
0.787177860736846924 0.0594024918973445892 0.156034722924232483
0.764389514923095703 0.0122241601347923279 0.363851785659790039
0.591047763824462891 0.208259940147399902 0.198092296719551086
0.131263867020606995 0.100741185247898102 0.569959521293640137
0.156630143523216248 0.119361951947212219 0.53964698314666748
0.743054389953613281 -0.0127016259357333183 0.319397866725921631
0.860904216766357422 0.0254848487675189972 0.206844151020050049
0.69476085901260376 0.0242941752076148987 0.289662837982177734
0.755164146423339844 -0.0356303155422210693 0.254867583513259888
0.604027926921844482 0.21104392409324646 0.240551993250846863
0.708932578563690186 -0.235646918416023254 0.297970086336135864
0.472653299570083618 0.254969388246536255 0.297058582305908203
0.121479041874408722 0.0669038519263267517 0.564102888107299805
0.804352462291717529 0.0715780556201934814 0.158821761608123779
0.0811542123556137085 0.0863980203866958618 0.584919154644012451
0.547446131706237793 -0.329809278249740601 0.357957720756530762
0.107030197978019714 -0.541358292102813721 0.390530794858932495
-0.323459267616271973 -0.544573485851287842 0.379675298929214478
0.304268747568130493 0.295533657073974609 0.42818787693977356
0.634538948535919189 0.184645816683769226 0.240881785750389099
0.793339967727661133 0.0924355760216712952 0.0253724902868270874
0.703696906566619873 -0.140028715133666992 0.322391211986541748
0.605458378791809082 -0.333793759346008301 0.390058755874633789
0.804890453815460205 0.0711575672030448914 0.156245127320289612
0.698704063892364502 -0.213176608085632324 0.303624510765075684
0.81725764274597168 0.0669936463236808777 0.0689795538783073425
0.777857363224029541 0.0577262602746486664 0.0520114675164222717
0.797664105892181396 0.0613647475838661194 0.154198095202445984
0.719132602214813232 -0.0927907228469848633 0.33022385835647583
0.533240556716918945 0.254701107740402222 0.30443418025970459
0.393672764301300049 -0.441339462995529175 0.395778387784957886
0.433403462171554565 -0.477116316556930542 0.37570422887802124
0.242432385683059692 -0.531739115715026855 0.395563751459121704
0.643441677093505859 0.175269067287445068 0.205014884471893311
0.0724275857210159302 0.0337584950029850006 0.595317959785461426
0.303149163722991943 0.253270089626312256 0.477714180946350098
0.707013249397277832 -0.153861314058303833 0.296110540628433228
0.72322922945022583 -0.219184234738349915 0.292896151542663574
0.576209664344787598 -0.328511029481887817 0.364457130432128906
0.623206913471221924 -0.0549807995557785034 0.218393176794052124
0.724038541316986084 -0.122765175998210907 0.301529526710510254
0.469895780086517334 -0.449405372142791748 0.402975499629974365
0.481791853904724121 -0.359688013792037964 0.391851276159286499
0.329267948865890503 0.361856579780578613 0.336732596158981323
0.702003836631774902 -0.162967681884765625 0.278779059648513794
0.472186237573623657 -0.406988263130187988 0.393760472536087036
0.579123139381408691 0.217738404870033264 0.277935117483139038
0.641373515129089355 -0.31211969256401062 0.380429893732070923
0.0786493942141532898 -0.554745852947235107 0.364571690559387207
-0.162882998585700989 -0.59236752986907959 0.345923185348510742
0.687094807624816895 -0.061880890280008316 0.222764953970909119
0.410628587007522583 0.268674224615097046 0.369856029748916626
0.738303601741790771 0.0726908743381500244 0.142259582877159119
0.565032422542572021 0.261647671461105347 0.292633742094039917
0.806374788284301758 0.0566747561097145081 0.0536283329129219055
0.676764726638793945 0.126019418239593506 0.2041911780834198
0.629053056240081787 0.125798538327217102 0.190680027008056641
0.748456060886383057 0.0070306193083524704 0.342053353786468506
-0.101806417107582092 -0.588086366653442383 0.352509945631027222
0.806950509548187256 0.00120632385369390249 0.163799211382865906
0.731392979621887207 0.00208862754516303539 0.224727287888526917
0.335493564605712891 0.281962364912033081 0.443300962448120117
0.674922585487365723 -0.16393984854221344 0.394919425249099731
0.633507668972015381 0.166330620646476746 0.28764769434928894
0.785046875476837158 0.00821289792656898499 0.210183754563331604
0.729964852333068848 -0.0824943706393241882 0.284103184938430786
0.727958559989929199 0.0858534350991249084 0.168196111917495728
0.463829010725021362 0.213755473494529724 0.429320544004440308
0.869936823844909668 0.055624891072511673 0.0794466733932495117
0.168367758393287659 0.149653255939483643 0.546808958053588867
0.364091813564300537 -0.451364040374755859 0.387465238571166992
0.771037638187408447 -0.118834413588047028 0.286165684461593628
0.693829238414764404 0.150560453534126282 0.179998964071273804
0.68122708797454834 0.14003048837184906 0.154185369610786438
0.730628073215484619 -0.112272985279560089 0.31455114483833313
0.755362570285797119 -0.0577304437756538391 0.264982819557189941
0.420326709747314453 0.264720767736434937 0.371698319911956787
0.633595287799835205 0.179776355624198914 0.241559967398643494
0.640327930450439453 0.244292497634887695 0.229674816131591797
0.45408177375793457 0.285419315099716187 0.271502286195755005
0.817678868770599365 0.0869288817048072815 0.124087363481521606
0.617212772369384766 0.224893376231193542 0.230869397521018982
0.675462603569030762 -0.227105692028999329 0.318435162305831909
0.124078795313835144 0.0668536648154258728 0.572302162647247314
0.595179617404937744 0.172332853078842163 0.276814877986907959
0.623245894908905029 -0.332329541444778442 0.388325363397598267
0.249398231506347656 -0.509195864200592041 0.381185233592987061
0.400389999151229858 0.29717668890953064 0.306430846452713013
0.811139702796936035 -0.00848206039518117905 0.228134602308273315
0.709558963775634766 -0.245469704270362854 0.360328197479248047
0.36402595043182373 -0.48118022084236145 0.432809203863143921
0.612677156925201416 0.223738119006156921 0.282473146915435791
0.842778503894805908 0.0615455992519855499 0.121571220457553864
0.428794741630554199 0.301721006631851196 0.318953335285186768
-0.188515231013298035 -0.571530520915985107 0.386796951293945312
0.596936404705047607 -0.276783883571624756 0.347737818956375122
0.650239646434783936 0.155864104628562927 0.169342339038848877
0.194870248436927795 0.151482030749320984 0.52325969934463501
0.593719482421875 -0.317893922328948975 0.405436158180236816
0.614684641361236572 -0.312556833028793335 0.353420823812484741
0.634796440601348877 0.22136765718460083 0.202186167240142822
0.52430415153503418 0.245907679200172424 0.306081771850585938
0.283705294132232666 0.242911249399185181 0.478581160306930542
0.398989498615264893 0.320477485656738281 0.336299210786819458
0.780382275581359863 0.0620410516858100891 0.115435533225536346
0.535494446754455566 -0.337150394916534424 0.467378407716751099
0.197329580783843994 -0.556504726409912109 0.356337249279022217
0.540213406085968018 0.266373157501220703 0.334098339080810547
0.547689139842987061 -0.328988194465637207 0.466723233461380005
0.320068925619125366 -0.468963563442230225 0.398557841777801514
0.566548347473144531 0.223301321268081665 0.293625742197036743
0.736815094947814941 -0.0141283376142382622 0.244976088404655457
0.711584270000457764 -0.10195324569940567 0.258431285619735718
0.372282981872558594 -0.480822235345840454 0.401624172925949097
0.533333241939544678 -0.424079746007919312 0.385054945945739746
0.513750195503234863 0.2802925705909729 0.358054429292678833
0.762309491634368896 -0.0233420412987470627 0.229591891169548035
0.70512998104095459 -0.231707647442817688 0.291750967502593994
-0.00340071250684559345 -0.560089230537414551 0.338307172060012817
0.697259366512298584 0.0888558551669120789 0.172471106052398682
0.79416203498840332 -0.132747948169708252 0.318902939558029175
0.655360519886016846 0.156818941235542297 0.174716874957084656
0.671242177486419678 -0.211106061935424805 0.298600763082504272
0.578521847724914551 0.238548487424850464 0.252085179090499878
0.339548021554946899 -0.467821240425109863 0.386684775352478027
0.57976144552230835 -0.341182410717010498 0.4233970046043396
0.521095752716064453 -0.336457282304763794 0.457464247941970825
0.732323884963989258 -0.134948685765266418 0.280022323131561279
0.693095505237579346 -0.222780078649520874 0.359529793262481689
0.372826576232910156 -0.479367047548294067 0.388290196657180786
0.539678514003753662 0.249794736504554749 0.316218316555023193
0.382499039173126221 -0.460642874240875244 0.388708412647247314
0.623588860034942627 -0.201087117195129395 0.305832594633102417
0.638475716114044189 -0.051990605890750885 0.20009283721446991
0.199786290526390076 -0.538492918014526367 0.353911012411117554
0.388037383556365967 -0.486127406358718872 0.415029406547546387
0.82748878002166748 0.0561406239867210388 0.0553927496075630188
0.781907737255096436 0.0595299862325191498 0.0680069029331207275
0.687023043632507324 -0.0203627049922943115 0.380186498165130615
0.59324878454208374 -0.321631401777267456 0.398493587970733643
0.719608128070831299 0.0290161706507205963 0.309340387582778931
0.448277413845062256 0.297616779804229736 0.313356906175613403
0.761605679988861084 0.0306800119578838348 0.163745120167732239
0.383685380220413208 0.296579718589782715 0.350808471441268921
0.685125291347503662 0.00523326685652136803 0.214029327034950256
0.57372593879699707 0.229221031069755554 0.249033793807029724
0.580497920513153076 0.224806353449821472 0.272118985652923584
-0.0307241529226303101 -0.577346682548522949 0.337506294250488281
0.627506732940673828 0.16659875214099884 0.200511038303375244
0.752326905727386475 0.0762798041105270386 0.136671841144561768
0.522762477397918701 0.27763405442237854 0.26403459906578064
0.696058332920074463 0.180292859673500061 0.172935709357261658
0.663972139358520508 0.153938174247741699 0.198572427034378052
0.745658040046691895 -0.0552790090441703796 0.247400209307670593
0.665122628211975098 0.193775147199630737 0.258157491683959961
0.703305184841156006 -0.173975542187690735 0.311039000749588013
0.644653260707855225 0.193499714136123657 0.263592958450317383
0.163038939237594604 -0.530214965343475342 0.361229985952377319
0.675024628639221191 -0.00988776795566082001 0.401637822389602661
0.772707283496856689 -0.0230641234666109085 0.253391146659851074
0.600323736667633057 0.149475798010826111 0.207474112510681152
0.816240787506103516 0.116658531129360199 0.152985230088233948
0.321473211050033569 -0.448068082332611084 0.388099968433380127
0.443675994873046875 0.2759971022605896 0.333496570587158203
0.448377817869186401 -0.429207801818847656 0.40980219841003418
0.667062342166900635 -0.183025240898132324 0.331075966358184814
0.636356174945831299 -0.189904555678367615 0.356391489505767822
0.753733813762664795 -0.00989357568323612213 0.2547188401222229
0.169247865676879883 0.117376722395420074 0.567691206932067871
0.627374351024627686 -0.3209877610206604 0.367617756128311157
0.65998917818069458 0.150735437870025635 0.201555430889129639
0.59766852855682373 0.225243657827377319 0.265712201595306396
0.389081835746765137 -0.479060143232345581 0.36483338475227356
0.721146047115325928 0.00764357205480337143 0.305632829666137695
0.0115577494725584984 0.0295737627893686295 0.61953890323638916
0.399756371974945068 0.305907964706420898 0.313399642705917358
0.0525945797562599182 0.0432297475636005402 0.609331965446472168
0.455475836992263794 0.30607566237449646 0.299942076206207275
0.698306381702423096 0.0961755067110061646 0.171756967902183533
0.217926844954490662 0.177889779210090637 0.588211357593536377
0.669431865215301514 -0.0179218277335166931 0.201934963464736938
0.634928345680236816 -0.304198414087295532 0.355856448411941528
0.770355820655822754 -0.0139632448554039001 0.229335233569145203
0.109283946454524994 0.134339898824691772 0.566480040550231934
0.0584148578345775604 0.100484646856784821 0.60944288969039917
0.16175474226474762 -0.530539035797119141 0.399513214826583862
0.0559752397239208221 0.11520674079656601 0.563621461391448975
0.593421339988708496 -0.322260946035385132 0.392954260110855103
0.596192598342895508 -0.323430687189102173 0.387003272771835327
0.484235405921936035 -0.398113220930099487 0.371605187654495239
0.657639563083648682 -0.0407354049384593964 0.209244996309280396
0.740791559219360352 -0.0198650490492582321 0.238128572702407837
0.732966780662536621 -0.0361806340515613556 0.274953931570053101
0.604669153690338135 0.183813810348510742 0.242468804121017456
0.519581973552703857 -0.403974473476409912 0.401821792125701904
0.302029907703399658 0.26363605260848999 0.437122523784637451
0.838786423206329346 0.0732081308960914612 0.143869489431381226
0.596087276935577393 0.215229853987693787 0.212929859757423401
0.660066723823547363 -0.22783324122428894 0.314076423645019531
0.556487679481506348 -0.332119911909103394 0.443374037742614746
0.675472378730773926 -0.174721226096153259 0.335403293371200562
0.80023723840713501 0.0653013736009597778 0.0907937884330749512
0.674942135810852051 0.0939893051981925964 0.175323322415351868
0.480384916067123413 -0.381394267082214355 0.362048804759979248
-0.299565374851226807 -0.573393762111663818 0.359607279300689697
0.194293990731239319 0.126781120896339417 0.542947649955749512
0.725900590419769287 -0.153178215026855469 0.303664892911911011
0.394012868404388428 -0.449559420347213745 0.368479520082473755
0.815433800220489502 0.107458673417568207 0.183145135641098022
0.715923309326171875 -0.205592572689056396 0.323289960622787476
0.798134505748748779 0.0175418742001056671 0.158427119255065918
0.321667999029159546 0.267708122730255127 0.410889655351638794
0.0488390959799289703 0.0312768034636974335 0.599009692668914795
0.73970186710357666 0.000779971014708280563 0.223231285810470581
0.229359954595565796 -0.548105359077453613 0.413757055997848511
-0.302924633026123047 -0.565469563007354736 0.365014314651489258
0.741281270980834961 -0.0210488848388195038 0.215551123023033142
0.63292461633682251 0.127325892448425293 0.183382406830787659
0.715052008628845215 -0.0368822440505027771 0.209132581949234009
0.449928879737854004 0.257047027349472046 0.413786619901657104
0.738393008708953857 -0.126161381602287292 0.306131750345230103
0.768651366233825684 -0.124487549066543579 0.277945816516876221
0.58107370138168335 0.189327821135520935 0.262444198131561279
0.781684994697570801 0.0899602249264717102 0.073081478476524353
0.330745518207550049 -0.474130958318710327 0.4052257239818573
0.795393109321594238 -0.103803731501102448 0.321941554546356201
-0.242937803268432617 -0.565795600414276123 0.38990059494972229
0.275233060121536255 0.229573428630828857 0.458614110946655273
0.768875241279602051 -0.0428094714879989624 0.261420756578445435
0.423399448394775391 0.273625016212463379 0.324087947607040405
0.310694575309753418 -0.505610406398773193 0.443534612655639648
0.518421173095703125 0.250459164381027222 0.335678428411483765
0.399166375398635864 0.289370954036712646 0.428160369396209717
0.457815468311309814 0.249522089958190918 0.372258663177490234
0.63388514518737793 0.137800022959709167 0.237445950508117676
0.11772453784942627 0.0985691696405410767 0.559269607067108154
0.655033409595489502 0.138843655586242676 0.202190324664115906
0.763316035270690918 0.02054627425968647 0.178711310029029846
0.173469841480255127 0.12514321506023407 0.563558578491210938
0.712670862674713135 -0.0236000344157218933 0.362133890390396118
0.405628234148025513 0.308444470167160034 0.398068517446517944
0.44472387433052063 0.300175726413726807 0.33077007532119751
0.752338707447052002 -0.00279593002051115036 0.181537315249443054
0.705149412155151367 -0.0143043408170342445 0.33269965648651123
0.172731861472129822 0.145127564668655396 0.561088323593139648
0.800862431526184082 -0.0111880442127585411 0.182649537920951843
0.730779170989990234 -0.0107905352488160133 0.330931246280670166
0.632151782512664795 -0.217870280146598816 0.311483532190322876
0.404954999685287476 0.283321112394332886 0.398215383291244507
0.675949156284332275 -0.171867087483406067 0.358144134283065796
0.502617001533508301 0.277214676141738892 0.347786039113998413
0.0225341394543647766 0.0225634314119815826 0.605971634387969971
0.45049169659614563 -0.410931587219238281 0.39903712272644043
0.773560762405395508 0.0224277041852474213 0.18596312403678894
0.74601447582244873 -0.0841373875737190247 0.278774768114089966
0.199353188276290894 0.189588606357574463 0.529677927494049072
0.164088651537895203 0.179006621241569519 0.541415095329284668
0.60532677173614502 0.218463405966758728 0.221658900380134583
0.734521389007568359 0.112757280468940735 0.184771746397018433
0.285393565893173218 -0.470563024282455444 0.440887629985809326
0.124156825244426727 0.106907650828361511 0.56808161735534668
0.496915340423583984 -0.353220731019973755 0.369824767112731934
0.792348802089691162 0.0614377707242965698 0.161950647830963135
0.529480576515197754 -0.349987000226974487 0.364893466234207153
0.414129287004470825 0.2716522216796875 0.379347503185272217
0.566493868827819824 0.28090590238571167 0.298325866460800171
0.504598498344421387 -0.396097421646118164 0.378248900175094604
0.767542600631713867 0.100495368242263794 0.0660441368818283081
0.733792364597320557 0.0379448868334293365 0.258460074663162231
0.570476889610290527 0.256748884916305542 0.287727922201156616
0.766012132167816162 -0.10074276477098465 0.323207706212997437
0.180420234799385071 0.156906306743621826 0.501962721347808838
0.762430965900421143 -0.00464789196848869324 0.344910889863967896
0.764491558074951172 -0.105620168149471283 0.259613841772079468
0.757637262344360352 0.0865748673677444458 0.0843754410743713379
0.73388749361038208 -0.0939930528402328491 0.24687550961971283
0.7587088942527771 0.129563167691230774 0.0516622662544250488
0.691674232482910156 -0.231953039765357971 0.346304923295974731
0.644853472709655762 0.149255827069282532 0.17429688572883606
0.366847485303878784 0.271734446287155151 0.421014130115509033
0.664327740669250488 -0.0520011447370052338 0.212741419672966003
0.836593091487884521 0.0548332333564758301 0.157864123582839966
-0.329997271299362183 -0.587001800537109375 0.382762283086776733
0.42371329665184021 0.276562154293060303 0.399374008178710938
-0.202847406268119812 -0.57360762357711792 0.365782856941223145
0.350212663412094116 0.30178523063659668 0.351969361305236816
0.540064394474029541 -0.340055108070373535 0.377602845430374146
0.773923158645629883 -0.0870966166257858276 0.262203335762023926
0.770586252212524414 -0.0804185345768928528 0.280918717384338379
0.700783014297485352 0.118324436247348785 0.19572874903678894
0.498900890350341797 0.235733777284622192 0.309085279703140259
0.760679423809051514 0.0533513948321342468 0.18745286762714386
0.194802165031433105 0.169947117567062378 0.526007950305938721
0.577114582061767578 -0.324355185031890869 0.444818854331970215
0.651590228080749512 -0.230431035161018372 0.320911556482315063
0.814763903617858887 -0.139383837580680847 0.327227741479873657
0.691041827201843262 -0.224899262189865112 0.339132249355316162
0.0387587063014507294 -0.571299910545349121 0.386338412761688232
0.559498131275177002 -0.33321341872215271 0.462288707494735718
0.478675723075866699 0.25448530912399292 0.366996973752975464
0.467437773942947388 -0.349289745092391968 0.419742196798324585
0.569639921188354492 0.191976279020309448 0.266411691904067993
0.626096248626708984 -0.0667937770485877991 0.187479704618453979
0.101503588259220123 0.0597169697284698486 0.57411801815032959
0.581965982913970947 -0.332836031913757324 0.364995181560516357
0.165565982460975647 0.157511249184608459 0.549055278301239014
0.564297914505004883 -0.345832556486129761 0.375972270965576172
0.636812150478363037 0.191253796219825745 0.214997485280036926
0.717927336692810059 -0.0818026363849639893 0.313036024570465088
0.820903778076171875 0.0674983635544776917 0.130535110831260681
0.82032322883605957 0.0185886472463607788 0.221132636070251465
0.489809304475784302 0.268161118030548096 0.33130180835723877
0.838957667350769043 0.0306282453238964081 0.119758047163486481
0.148841947317123413 -0.54427647590637207 0.373509526252746582
0.731809914112091064 -0.0103876832872629166 0.336406439542770386
0.340885043144226074 0.271501541137695312 0.399214118719100952
0.380117803812026978 -0.472400635480880737 0.353151232004165649
0.815680325031280518 0.0502192080020904541 0.193377941846847534
0.268211513757705688 0.21812853217124939 0.49544641375541687
0.684318184852600098 -0.216780737042427063 0.3832988440990448
0.724290847778320312 0.0593295805156230927 0.15309499204158783
0.757019340991973877 0.0264743920415639877 0.134644538164138794
0.644033849239349365 0.152211025357246399 0.212512165307998657
0.57426142692565918 0.237380936741828918 0.275065332651138306
0.684553742408752441 0.139750570058822632 0.186531752347946167
0.716850519180297852 0.00821029301732778549 0.262196213006973267
0.516772091388702393 0.244843393564224243 0.313436120748519897
0.772248566150665283 0.0529371276497840881 0.197147250175476074
0.633359134197235107 -0.0659091919660568237 0.225510850548744202
0.334988921880722046 0.244196444749832153 0.433038979768753052
0.781700730323791504 0.0695896148681640625 0.176792576909065247
0.852531671524047852 0.0463676154613494873 0.215532958507537842
0.577175378799438477 0.246820986270904541 0.250454425811767578
0.623310089111328125 -0.0498812086880207062 0.193451642990112305
0.130281329154968262 0.1072826087474823 0.56880640983581543
0.593076467514038086 -0.324028342962265015 0.341361373662948608
0.839293897151947021 0.0591116771101951599 0.10838848352432251
0.605368971824645996 0.197104036808013916 0.29477006196975708
0.611354291439056396 -0.331441432237625122 0.353831022977828979
0.669601917266845703 -0.0346812494099140167 0.220600664615631104
0.853756308555603027 0.0254856403917074203 0.0914807617664337158
0.222346886992454529 0.176376491785049438 0.53532642126083374
0.673982918262481689 0.104992762207984924 0.161977425217628479
0.706213951110839844 -0.0990194305777549744 0.318606674671173096
0.666344344615936279 -0.0443057455122470856 0.203007802367210388
0.6914520263671875 -0.231730535626411438 0.335091531276702881
0.525214910507202148 0.267190247774124146 0.291052132844924927
0.769039332866668701 0.0613049603998661041 0.134022250771522522
0.732865512371063232 0.0724104046821594238 0.127074375748634338
0.751504719257354736 -0.106308422982692719 0.279775410890579224
0.163728043437004089 -0.573836624622344971 0.330908387899398804
0.376798808574676514 -0.438140064477920532 0.41621696949005127
0.643644273281097412 -0.287980079650878906 0.340782105922698975
0.782717406749725342 0.0984005331993103027 0.132839828729629517
0.124950557947158813 0.0711662769317626953 0.617362797260284424
0.204211115837097168 0.168461889028549194 0.536968767642974854
0.503684699535369873 -0.381729483604431152 0.369583755731582642
0.404489755630493164 0.297781378030776978 0.394937872886657715
0.677464902400970459 -0.250567167997360229 0.307774543762207031
0.569572985172271729 -0.360084742307662964 0.369265079498291016
0.193978577852249146 0.173157438635826111 0.551987290382385254
0.69649052619934082 -0.221413388848304749 0.365744680166244507
0.47544524073600769 -0.464496612548828125 0.345761328935623169
0.559196054935455322 -0.342123419046401978 0.385724961757659912
0.55780106782913208 -0.375152140855789185 0.379869401454925537
0.672110795974731445 0.194267123937606812 0.18855266273021698
0.639365732669830322 0.161217451095581055 0.19987119734287262
0.751920402050018311 -0.00994338467717170715 0.229510098695755005
0.661499619483947754 -0.305336534976959229 0.343097716569900513
0.646892428398132324 0.127742260694503784 0.285031497478485107
0.20598997175693512 0.158414378762245178 0.532747745513916016
0.806163966655731201 0.069307371973991394 0.0571773014962673187
-0.329563736915588379 -0.55682528018951416 0.372260779142379761
0.424067139625549316 0.241297021508216858 0.415273576974868774
0.496081799268722534 -0.425146371126174927 0.381482630968093872
-0.161046773195266724 -0.571492016315460205 0.370866626501083374
0.604050219058990479 -0.306922584772109985 0.391163438558578491
0.727725803852081299 -0.0369309559464454651 0.233368635177612305
-0.0176359415054321289 -0.59502798318862915 0.391202867031097412
0.158124059438705444 -0.523560822010040283 0.3750285804271698
0.551472067832946777 0.2493772953748703 0.297465413808822632
0.586416721343994141 -0.307091653347015381 0.422890931367874146
0.824547350406646729 0.0834017768502235413 0.165090039372444153
0.380313515663146973 -0.449687838554382324 0.414123982191085815
0.757007360458374023 -0.0865897238254547119 0.234724894165992737
0.2191142737865448 0.186820194125175476 0.529471933841705322
0.788658380508422852 0.0721473023295402527 0.0315488912165164948
0.732922554016113281 -0.113270506262779236 0.279156088829040527
0.676339089870452881 -0.249340817332267761 0.346562117338180542
0.18847501277923584 0.0877373814582824707 0.54987645149230957
0.195243895053863525 0.176464706659317017 0.513513088226318359
0.469250321388244629 -0.446502357721328735 0.399350374937057495
0.426811665296554565 -0.404926419258117676 0.396553337574005127
0.674075603485107422 0.186175540089607239 0.285575807094573975
0.116771548986434937 0.0990238040685653687 0.59296882152557373
0.753792047500610352 0.0137293403968214989 0.197560429573059082
0.781314194202423096 -0.0482284203171730042 0.216785192489624023
0.625977575778961182 0.207195952534675598 0.246441826224327087
0.80395883321762085 -0.0166683942079544067 0.26430433988571167
0.619580864906311035 0.178252637386322021 0.222759991884231567
0.497684389352798462 -0.420212447643280029 0.435025006532669067
0.636847734451293945 -0.246052712202072144 0.334077835083007812
0.0339493788778781891 0.064296722412109375 0.621474683284759521
0.637166619300842285 0.193778127431869507 0.199312612414360046
0.778427302837371826 0.0150786628946661949 0.174869343638420105
0.699336588382720947 -0.0999195873737335205 0.309511005878448486
0.770820140838623047 0.0580305866897106171 0.183868393301963806
0.350206136703491211 0.239559978246688843 0.451826274394989014
0.679742515087127686 0.125590309500694275 0.183784037828445435
0.373166561126708984 0.258762121200561523 0.409781515598297119
0.609818637371063232 0.179474443197250366 0.22497895359992981
0.731487870216369629 -0.0156836099922657013 0.197377517819404602
0.802615821361541748 0.0120928026735782623 0.205026626586914062
0.631920039653778076 0.0915752723813056946 0.15857107937335968
0.631947159767150879 0.178755804896354675 0.280728012323379517
0.582130014896392822 0.19341607391834259 0.223151400685310364
0.471658825874328613 0.28088727593421936 0.3912181556224823
0.190804481506347656 0.195797383785247803 0.49649965763092041
0.0756152942776679993 0.0604426451027393341 0.611905515193939209
0.0842577889561653137 0.125555068254470825 0.587648987770080566
0.25350305438041687 0.221792608499526978 0.512910068035125732
0.692451596260070801 -0.194883167743682861 0.355663716793060303
0.12025027722120285 0.11021297425031662 0.602352142333984375
0.386145919561386108 -0.482979953289031982 0.410861313343048096
0.462787747383117676 0.230966910719871521 0.39616703987121582
0.2151164710521698 0.174533694982528687 0.537974655628204346
0.664484381675720215 -0.264432609081268311 0.326901882886886597
0.275155514478683472 -0.514481663703918457 0.411657601594924927
0.522041499614715576 -0.401852071285247803 0.381113201379776001
0.593382954597473145 -0.262561023235321045 0.284869015216827393
0.573515713214874268 -0.337597131729125977 0.398218095302581787
0.616705894470214844 0.185054406523704529 0.242027103900909424
0.644335746765136719 -0.269106149673461914 0.356418758630752563
0.684976339340209961 -0.13717496395111084 0.274631112813949585
0.104931958019733429 0.103828534483909607 0.574401736259460449
0.608541548252105713 0.23793049156665802 0.221827238798141479
0.643205106258392334 -0.308645337820053101 0.390339165925979614
0.33350682258605957 0.282137572765350342 0.388168692588806152
0.678419232368469238 0.138901770114898682 0.205297395586967468
-0.224052712321281433 -0.579652845859527588 0.355007350444793701
0.621353268623352051 -0.277684599161148071 0.332529902458190918
0.781678736209869385 0.0278894901275634766 0.243910834193229675
0.429218769073486328 -0.436923861503601074 0.409469395875930786
0.860588610172271729 0.0977147072553634644 0.1847086101770401
0.477573156356811523 0.284763842821121216 0.322617202997207642
0.511762857437133789 -0.343459337949752808 0.453166961669921875
0.599384844303131104 0.237652122974395752 0.214685901999473572
0.122512534260749817 0.139371782541275024 0.576343119144439697
0.782251656055450439 -0.0884097516536712646 0.258181273937225342
0.757180392742156982 0.00383127480745315552 0.171769812703132629
0.535261750221252441 -0.40621870756149292 0.414240181446075439
0.633094847202301025 0.20867118239402771 0.229594513773918152
0.636016845703125 0.19680921733379364 0.197615101933479309
0.660642027854919434 0.106368936598300934 0.124466001987457275
0.500726640224456787 -0.408121407032012939 0.367132067680358887
0.477892667055130005 0.253550112247467041 0.370333284139633179
0.487756490707397461 -0.413229644298553467 0.382007688283920288
0.562392354011535645 0.256751745939254761 0.277858465909957886
0.644277811050415039 -0.238312825560569763 0.31108972430229187
0.0928453654050827026 0.0766778811812400818 0.590207457542419434
0.837742507457733154 0.0576172731816768646 0.0953270867466926575
0.688175618648529053 -0.0295159406960010529 0.21570761501789093
0.283366352319717407 0.241290852427482605 0.499068945646286011
