ply
format ascii 1.0
element vertex 752
comment vertices
property float x
property float y
property float z
end_header
0.254779666662216187 0.422701656818389893 0.335802465677261353
0.374937772750854492 0.430024564266204834 0.192023232579231262
0.0121828000992536545 0.508128106594085693 0.330282896757125854
0.255390435457229614 -0.276137411594390869 0.343512237071990967
-0.0561589263379573822 -0.415272384881973267 0.315312236547470093
0.516517758369445801 0.0137768508866429329 0.320443779230117798
0.563542544841766357 0.306543827056884766 0.079516679048538208
0.470418035984039307 0.0773552283644676208 0.265428662300109863
0.360208004713058472 -0.194302111864089966 0.409516394138336182
0.263043135404586792 0.444385558366775513 0.252356827259063721
0.511151671409606934 0.0440671332180500031 0.328666061162948608
0.277618139982223511 0.431549578905105591 0.238863170146942139
0.382820725440979004 -0.0852878466248512268 0.319335132837295532
0.209895923733711243 -0.309137880802154541 0.287598133087158203
0.497278571128845215 0.326275050640106201 0.0944640263915061951
0.352338790893554688 -0.158401340246200562 0.389349222183227539
0.561459481716156006 0.258443355560302734 0.0285931024700403214
0.430766373872756958 0.30977359414100647 0.124800533056259155
0.370875179767608643 0.400926172733306885 0.225403070449829102
-0.661576986312866211 -0.31055605411529541 0.368867546319961548
0.554552674293518066 0.326677411794662476 0.0380026437342166901
0.0738573670387268066 -0.366245001554489136 0.344515085220336914
0.343476980924606323 0.301789999008178711 0.187633365392684937
0.250694602727890015 -0.291878759860992432 0.339086562395095825
0.590128779411315918 0.214570373296737671 0.0882006064057350159
0.295860499143600464 -0.230006664991378784 0.387641578912734985
0.583534777164459229 0.268671721220016479 0.0956755802035331726
0.527506649494171143 0.179838746786117554 0.161580219864845276
-0.0285897757858037949 -0.393605858087539673 0.349743545055389404
0.495787769556045532 0.2833670973777771 0.0214070994406938553
0.247921377420425415 0.464287221431732178 0.244739070534706116
-0.1171131432056427 -0.42375868558883667 0.356850415468215942
0.307078123092651367 -0.247493952512741089 0.3295268714427948
-0.268504470586776733 -0.431125074625015259 0.401803016662597656
0.530620574951171875 0.229057759046554565 0.129018187522888184
0.257216066122055054 0.497289389371871948 0.300045192241668701
0.0442510209977626801 0.485931456089019775 0.323954641819000244
0.506884872913360596 0.243070632219314575 -0.0221278946846723557
0.298527896404266357 0.456171721220016479 0.282042622566223145
0.381508708000183105 -0.1540183424949646 0.359774142503738403
0.18611462414264679 0.469713300466537476 0.314674049615859985
0.561729073524475098 0.238425895571708679 0.00598209584131836891
0.594914734363555908 0.205191388726234436 0.12952190637588501
0.5022163987159729 0.153613820672035217 0.2246694415807724
0.550891518592834473 0.273894190788269043 0.0556108951568603516
0.33234405517578125 0.409500300884246826 0.238403037190437317
0.499727994203567505 0.172502771019935608 0.261472463607788086
0.340476542711257935 0.387613952159881592 0.211723998188972473
0.191801533102989197 0.462544351816177368 0.284496605396270752
0.351481735706329346 -0.177754268050193787 0.41363525390625
0.025369543582201004 0.492225587368011475 0.312880516052246094
0.559417426586151123 0.254531174898147583 0.0393081270158290863
0.391554206609725952 0.368548929691314697 0.148731321096420288
0.158773809671401978 -0.339022636413574219 0.300573915243148804
0.520542502403259277 0.123920455574989319 0.246566250920295715
0.122382812201976776 -0.363116800785064697 0.311911404132843018
0.0583205334842205048 -0.382119983434677124 0.334368616342544556
0.53934401273727417 0.160260036587715149 0.141719728708267212
0.362550944089889526 -0.177507743239402771 0.325310766696929932
0.383282333612442017 -0.13134920597076416 0.389626741409301758
0.599852204322814941 0.245698511600494385 0.0307421907782554626
-0.228520035743713379 -0.411872625350952148 0.41663023829460144
0.523628592491149902 0.157697379589080811 0.164359986782073975
0.326705336570739746 -0.21376761794090271 0.402597814798355103
0.581759989261627197 0.314726710319519043 0.0813139081001281738
0.493893146514892578 0.0745958760380744934 0.278776854276657104
0.331141173839569092 0.43397483229637146 0.196674942970275879
0.293410897254943848 0.483972281217575073 0.246499761939048767
0.227641507983207703 -0.266815543174743652 0.346469849348068237
0.49529382586479187 0.0641971305012702942 0.299889922142028809
0.295946508646011353 0.495635360479354858 0.246324002742767334
0.438511580228805542 0.147964790463447571 0.18635442852973938
0.549892425537109375 0.256083846092224121 0.0448710471391677856
0.47478523850440979 0.305637091398239136 0.110138446092605591
0.323593735694885254 0.413557261228561401 0.182689234614372253
0.150137409567832947 -0.321744680404663086 0.280565321445465088
0.566627085208892822 0.250449985265731812 0.0182701051235198975
0.260749995708465576 -0.272507786750793457 0.320097446441650391
0.35111159086227417 0.412295281887054443 0.181730329990386963
0.202677786350250244 -0.282076090574264526 0.364152878522872925
-0.500443220138549805 -0.409902036190032959 0.412990391254425049
-0.647371888160705566 -0.285483121871948242 0.373805135488510132
-0.315971821546554565 -0.455429226160049438 0.408411324024200439
0.222746625542640686 0.44173818826675415 0.327148467302322388
0.530868768692016602 0.13479149341583252 0.227333307266235352
0.133001774549484253 0.439415961503982544 0.353807657957077026
0.168703451752662659 0.433548510074615479 0.263991445302963257
0.541112661361694336 0.00163132266607135534 0.314680218696594238
0.296483635902404785 -0.274847298860549927 0.370312035083770752
0.069239296019077301 0.497189611196517944 0.294030755758285522
0.506184756755828857 0.00246863439679145813 0.319021314382553101
0.375836223363876343 -0.181329458951950073 0.311191409826278687
0.338553547859191895 0.396630793809890747 0.197584107518196106
0.433216243982315063 -0.045235559344291687 0.341264456510543823
0.293472468852996826 -0.227720648050308228 0.38494420051574707
0.024710431694984436 0.509083151817321777 0.318140000104904175
0.257570385932922363 -0.212028235197067261 0.39153677225112915
0.485931575298309326 0.00966815277934074402 0.315168648958206177
0.544359326362609863 0.0704803913831710815 0.280726581811904907
0.556920111179351807 0.182379454374313354 0.170268341898918152
0.564172863960266113 0.261209785938262939 0.0619246289134025574
-0.653219223022460938 -0.356368333101272583 0.395619988441467285
0.354230910539627075 0.413095980882644653 0.23578152060508728
-0.606883466243743896 -0.275006622076034546 0.348021000623703003
0.371100723743438721 0.320579975843429565 0.113063327968120575
0.283946841955184937 -0.283291488885879517 0.331979155540466309
0.545592904090881348 0.213888972997665405 -0.00316309207119047642
0.584806263446807861 0.224773705005645752 0.0641744807362556458
0.515097618103027344 0.306875765323638916 0.0809809267520904541
0.473772555589675903 0.285575032234191895 -0.0755314901471138
0.232528865337371826 0.461841046810150146 0.326768934726715088
0.00889640487730503082 -0.412296056747436523 0.34336051344871521
0.281387537717819214 0.442143052816390991 0.266965925693511963
0.0959556251764297485 0.522004246711730957 0.276822209358215332
0.0818101763725280762 0.498101651668548584 0.291663438081741333
0.527033150196075439 0.0924629196524620056 0.216188251972198486
0.527960896492004395 0.0796433761715888977 0.245631635189056396
0.553007781505584717 0.219804644584655762 0.0056715104728937149
0.497192978858947754 0.0320136211812496185 0.267805218696594238
-0.634599208831787109 -0.375974953174591064 0.377907395362854004
0.0995201244950294495 -0.361769765615463257 0.324753135442733765
0.22801092267036438 0.496551781892776489 0.279148876667022705
-0.618822216987609863 -0.321229368448257446 0.391236871480941772
0.377462506294250488 -0.0788480192422866821 0.359168976545333862
0.400653630495071411 0.298296838998794556 0.162892982363700867
0.378958672285079956 -0.186035007238388062 0.377401232719421387
0.295408457517623901 -0.2269258052110672 0.392945736646652222
0.312595725059509277 -0.275830537080764771 0.372184932231903076
0.377680122852325439 -0.177898630499839783 0.393590271472930908
0.48946717381477356 0.220900774002075195 0.00415426120162010193
0.380293756723403931 0.357260733842849731 0.151204213500022888
0.404241263866424561 0.361363023519515991 0.130837038159370422
0.190132871270179749 0.482171714305877686 0.267249256372451782
0.456317752599716187 0.0591802783310413361 0.32982635498046875
0.387780964374542236 0.318156301975250244 0.160528466105461121
0.232385933399200439 -0.310839354991912842 0.364130616188049316
0.549275100231170654 0.277261614799499512 0.102149344980716705
0.498633414506912231 0.289280414581298828 0.0589144490659236908
0.453236788511276245 -0.0180086474865674973 0.366292417049407959
0.525287985801696777 0.0614649690687656403 0.290047496557235718
0.0340173803269863129 -0.368706643581390381 0.353634476661682129
0.372650414705276489 0.325293511152267456 0.187520593404769897
0.411843866109848022 -0.128380075097084045 0.379127562046051025
-0.0226757675409317017 -0.37906944751739502 0.357120007276535034
0.58471447229385376 0.221261247992515564 0.077299952507019043
0.316020548343658447 0.374319940805435181 0.25073125958442688
-0.119387038052082062 -0.426303833723068237 0.346078246831893921
0.544045031070709229 0.275977790355682373 0.0240873415023088455
0.573120296001434326 0.0106123564764857292 0.273301988840103149
0.249127194285392761 -0.305136054754257202 0.283480733633041382
-0.635557889938354492 -0.328213036060333252 0.380984723567962646
0.474389851093292236 0.116955503821372986 0.266224086284637451
0.595756053924560547 0.29395526647567749 0.02324640192091465
0.328245222568511963 0.405274897813796997 0.212331309914588928
0.209235325455665588 0.498260587453842163 0.286960035562515259
-0.1477079838514328 -0.407277554273605347 0.372640162706375122
0.639918029308319092 0.261909246444702148 0.0876036211848258972
0.205404713749885559 0.468973875045776367 0.25866931676864624
-0.438731849193572998 -0.397577226161956787 0.428425192832946777
0.597637355327606201 0.240339338779449463 0.0536998994648456573
0.573848605155944824 0.209817662835121155 0.0821263864636421204
0.337399154901504517 -0.256565660238265991 0.302291423082351685
0.347289949655532837 0.345159649848937988 0.149753659963607788
-0.276808172464370728 -0.46011778712272644 0.40574038028717041
0.235747531056404114 -0.330872654914855957 0.305731534957885742
0.617379367351531982 0.273965328931808472 0.0273356121033430099
0.485480666160583496 0.0271204225718975067 0.317096412181854248
0.531049668788909912 0.111899740993976593 0.23578132688999176
-0.290938913822174072 -0.422433733940124512 0.401200205087661743
0.559519290924072266 0.203579366207122803 0.123584344983100891
-0.0809815898537635803 -0.426567494869232178 0.328318119049072266
0.0732756108045578003 -0.374271392822265625 0.356841713190078735
0.407043784856796265 -0.128279268741607666 0.390478312969207764
0.138685643672943115 -0.35145530104637146 0.31660991907119751
0.514700233936309814 -0.034708123654127121 0.30448344349861145
0.517512798309326172 0.275422155857086182 0.0795096084475517273
0.352627098560333252 0.414928019046783447 0.231127515435218811
0.0785778164863586426 -0.387500166893005371 0.357351720333099365
0.592014610767364502 0.214478418231010437 0.118942588567733765
0.453530341386795044 0.0775666311383247375 0.249253243207931519
-0.000477770663565024734 -0.403824329376220703 0.349949002265930176
0.269901663064956665 -0.251518577337265015 0.368553519248962402
0.517877101898193359 0.268702954053878784 -0.0110223395749926567
0.516447603702545166 0.233110129833221436 0.072416260838508606
0.29269525408744812 0.426811069250106812 0.228770613670349121
0.394920825958251953 0.33058619499206543 0.145623192191123962
0.560287773609161377 0.263861536979675293 0.0789720043540000916
0.364523351192474365 0.3405303955078125 0.188167363405227661
0.098074890673160553 -0.361618340015411377 0.367836564779281616
0.277364194393157959 0.453682363033294678 0.295438259840011597
0.521648406982421875 0.281302690505981445 0.0162723492830991745
0.59565359354019165 0.22829049825668335 0.0409434251487255096
0.551756620407104492 0.0788570195436477661 0.277616322040557861
-0.625492215156555176 -0.365734964609146118 0.385726243257522583
0.504983127117156982 0.162752091884613037 0.186381056904792786
0.389287620782852173 -0.153601318597793579 0.366639405488967896
-0.618872463703155518 -0.324471741914749146 0.328559160232543945
0.587700247764587402 0.254593968391418457 0.0368518903851509094
0.571196973323822021 0.122461989521980286 0.225819051265716553
0.236372485756874084 -0.293863534927368164 0.350571990013122559
0.327521383762359619 -0.272747546434402466 0.294077098369598389
0.226195365190505981 -0.302266091108322144 0.344737589359283447
-0.454298019409179688 -0.441206961870193481 0.426350146532058716
0.554117083549499512 0.234825700521469116 0.0932993069291114807
0.463853299617767334 0.0925041437149047852 0.275283128023147583
0.253420174121856689 -0.290434569120407104 0.322537213563919067
0.355920761823654175 0.341261535882949829 0.149416118860244751
0.502614676952362061 0.04625672847032547 0.291615098714828491
0.563463330268859863 0.277277082204818726 0.0528699010610580444
0.258216410875320435 -0.305622786283493042 0.287630051374435425
0.531910896301269531 0.151690706610679626 0.223112612962722778
-0.620218217372894287 -0.36471182107925415 0.363528847694396973
-0.654804825782775879 -0.308402180671691895 0.373103588819503784
0.592758357524871826 0.211714521050453186 0.0792257934808731079
-0.432770848274230957 -0.415365606546401978 0.426730096340179443
0.578500330448150635 0.237908944487571716 0.0948383063077926636
0.260865896940231323 0.430214375257492065 0.226758033037185669
-0.142035067081451416 -0.445119172334671021 0.360843271017074585
0.528773367404937744 0.129221409559249878 0.200372040271759033
0.312060922384262085 -0.182570889592170715 0.340785712003707886
0.513596832752227783 0.157675608992576599 0.127604201436042786
0.414397478103637695 -0.171326979994773865 0.338912248611450195
0.537604272365570068 0.174994140863418579 0.206679254770278931
0.467496544122695923 0.0669368505477905273 0.241933137178421021
0.45788872241973877 0.0852010101079940796 0.280158758163452148
0.235632270574569702 0.479064762592315674 0.31347125768661499
0.528229057788848877 -0.00464729638770222664 0.372789084911346436
-0.299589782953262329 -0.407014161348342896 0.378185003995895386
-0.114605046808719635 -0.419161468744277954 0.328251868486404419
0.409245610237121582 0.377420902252197266 0.134738191962242126
0.348675072193145752 -0.184366628527641296 0.326805382966995239
0.384398937225341797 0.3657035231590271 0.06077565997838974
0.539626121520996094 0.140555799007415771 0.223108723759651184
0.193767428398132324 0.454539626836776733 0.338769346475601196
0.461490035057067871 0.0112217292189598083 0.295290142297744751
0.139640361070632935 -0.345907717943191528 0.275282084941864014
0.348361462354660034 0.433284133672714233 0.226845905184745789
0.51758342981338501 0.0662260279059410095 0.250897079706192017
0.501368463039398193 0.0893859416246414185 0.295466899871826172
0.275734364986419678 0.465881466865539551 0.272577345371246338
-0.136191621422767639 -0.445639610290527344 0.330382734537124634
0.514410614967346191 0.294818997383117676 0.1131468266248703
0.0582547001540660858 -0.396168351173400879 0.348029524087905884
0.350873708724975586 -0.170382916927337646 0.414704233407974243
0.511045992374420166 0.0903803408145904541 0.265807807445526123
0.339153796434402466 0.400928765535354614 0.211404934525489807
0.368801921606063843 -0.240645572543144226 0.423484712839126587
0.237570121884346008 0.475982874631881714 0.27470862865447998
0.488486737012863159 0.298689991235733032 0.0835637673735618591
0.401032984256744385 -0.0607507824897766113 0.362923711538314819
0.525008022785186768 0.0994530394673347473 0.242273718118667603
0.56129986047744751 0.298994243144989014 0.0981661900877952576
0.34559282660484314 -0.235956534743309021 0.368501275777816772
0.56346285343170166 0.309199213981628418 0.0749224647879600525
0.226763367652893066 0.427652984857559204 0.33306276798248291
0.481952816247940063 0.104879006743431091 0.269133955240249634
-0.437542557716369629 -0.428652018308639526 0.410447210073471069
0.266835212707519531 -0.259645909070968628 0.351483702659606934
-0.0694649443030357361 -0.422715723514556885 0.335728704929351807
0.335988044738769531 -0.148097991943359375 0.373756229877471924
0.492156326770782471 -0.00875148177146911621 0.326421737670898438
0.311901241540908813 0.454640716314315796 0.234555944800376892
0.161170050501823425 0.492270946502685547 0.282292187213897705
-0.340365320444107056 -0.425562649965286255 0.425591230392456055
0.428518444299697876 0.306743115186691284 0.107260920107364655
0.247376412153244019 -0.298586189746856689 0.334396034479141235
0.279182970523834229 -0.286332368850708008 0.348165839910507202
0.464035242795944214 0.305506289005279541 0.0365117006003856659
0.494201362133026123 0.115118451416492462 0.193837881088256836
0.562278687953948975 0.282735615968704224 0.0432598106563091278
0.369919329881668091 0.330617845058441162 0.14712291955947876
0.472388386726379395 -0.051423683762550354 0.307946562767028809
0.363059550523757935 -0.157859265804290771 0.354106634855270386
0.280534118413925171 0.449392884969711304 0.280139327049255371
-0.63901519775390625 -0.297325462102890015 0.348517656326293945
0.361329466104507446 -0.169691845774650574 0.381275206804275513
0.548578441143035889 0.285024702548980713 0.0648414790630340576
-0.263948380947113037 -0.43171653151512146 0.354694277048110962
0.165760666131973267 -0.333140403032302856 0.344296634197235107
-0.067020028829574585 -0.399690687656402588 0.32848772406578064
0.510457754135131836 0.280615389347076416 -0.00583343859761953354
0.165772587060928345 -0.301606029272079468 0.327230900526046753
0.205112561583518982 0.424480825662612915 0.350590407848358154
0.142829090356826782 0.520984113216400146 0.261032432317733765
0.59033203125 0.267365515232086182 0.0781975984573364258
0.488957434892654419 -0.00162346684373915195 0.269194185733795166
0.569565892219543457 0.268128782510757446 0.0626149103045463562
0.230111733078956604 0.455704003572463989 0.272558063268661499
0.0296097025275230408 -0.367217123508453369 0.317871838808059692
0.511579811573028564 0.239755749702453613 0.00774558167904615402
-0.608796834945678711 -0.314880341291427612 0.358267486095428467
0.502876758575439453 0.290078550577163696 -0.00120529404375702143
-0.606349527835845947 -0.422584682703018188 0.383266240358352661
0.16946062445640564 0.461206227540969849 0.280145913362503052
0.478016138076782227 0.00908929388970136642 0.298726350069046021
0.238975226879119873 -0.357417941093444824 0.341637551784515381
0.486030042171478271 0.0585455559194087982 0.282507151365280151
0.205567091703414917 0.420209258794784546 0.335359871387481689
0.454167634248733521 -0.00600284663960337639 0.321204990148544312
-0.0148353045806288719 0.52604442834854126 0.351436406373977661
0.553398430347442627 0.170990452170372009 0.133255958557128906
0.116687379777431488 -0.359169185161590576 0.302445679903030396
-0.445064723491668701 -0.398081839084625244 0.428897947072982788
0.342892616987228394 -0.277464926242828369 0.367700368165969849
-0.281841367483139038 -0.451115638017654419 0.38188520073890686
0.0542444325983524323 -0.39336693286895752 0.366057634353637695
0.189412787556648254 0.424348115921020508 0.379964709281921387
0.344856917858123779 -0.154503807425498962 0.335761815309524536
0.518310964107513428 0.0948810577392578125 0.298508912324905396
0.534201920032501221 0.200418412685394287 0.161615088582038879
0.0777643471956253052 -0.363867312669754028 0.34381103515625
0.220885753631591797 -0.324921548366546631 0.316621184349060059
0.288352489471435547 -0.268858253955841064 0.337938636541366577
0.280717164278030396 0.438522994518280029 0.376724302768707275
0.324612438678741455 0.451396137475967407 0.276042699813842773
0.265330523252487183 0.463796645402908325 0.236479923129081726
0.103500813245773315 0.459167450666427612 0.363466471433639526
0.152037963271141052 0.441374868154525757 0.369722843170166016
0.282933592796325684 -0.314859449863433838 0.340396404266357422
0.537761867046356201 0.0828071609139442444 0.246360614895820618
0.428640931844711304 0.296730369329452515 0.13425794243812561
0.492800772190093994 0.144691810011863708 0.228863924741744995
0.468009620904922485 -0.0767431184649467468 0.332854092121124268
0.529038667678833008 0.126156508922576904 0.218170717358589172
-0.621940433979034424 -0.360176712274551392 0.386001616716384888
0.306326329708099365 0.413920611143112183 0.231573715806007385
0.355070501565933228 -0.184447705745697021 0.396835982799530029
0.388235986232757568 -0.132146298885345459 0.379885375499725342
0.523150503635406494 0.295602738857269287 0.0928946062922477722
0.595231235027313232 0.130303367972373962 0.252243131399154663
0.532028257846832275 0.106565728783607483 0.174307882785797119
0.550119280815124512 0.0385788194835186005 0.249069839715957642
-0.0647734552621841431 -0.394652098417282104 0.333803266286849976
0.185716152191162109 0.428429961204528809 0.381092995405197144
0.325508356094360352 0.458098143339157104 0.218070492148399353
0.596414387226104736 0.186964645981788635 0.165331602096557617
0.383956253528594971 -0.0592453479766845703 0.277829855680465698
0.508952975273132324 0.304217517375946045 0.068004414439201355
0.514975130558013916 0.260984122753143311 -0.0318944081664085388
-0.0867387950420379639 -0.416302919387817383 0.324785947799682617
0.216045081615447998 0.44745713472366333 0.282649010419845581
0.514028728008270264 0.0916629061102867126 0.237188979983329773
0.510788023471832275 0.113266214728355408 0.233159586787223816
-0.666213274002075195 -0.330727517604827881 0.380232483148574829
0.607550859451293945 0.203924313187599182 0.0354197286069393158
0.206091314554214478 -0.318572580814361572 0.312938660383224487
0.37777981162071228 0.31714203953742981 0.134907737374305725
0.31819114089012146 0.327186912298202515 0.164826363325119019
0.371864616870880127 0.364342093467712402 0.174829214811325073
0.369761675596237183 -0.122396774590015411 0.342174410820007324
0.141546204686164856 -0.336736679077148438 0.316307097673416138
0.314367473125457764 -0.188878282904624939 0.400692522525787354
0.232720762491226196 -0.310870438814163208 0.352182656526565552
0.519935727119445801 0.170202091336250305 0.196919903159141541
0.241168960928916931 0.482095837593078613 0.29753759503364563
0.412830322980880737 0.305212676525115967 0.130268454551696777
0.424500644207000732 0.306649565696716309 0.0922397151589393616
0.0688836723566055298 -0.382127940654754639 0.388723939657211304
-0.435893028974533081 -0.394297182559967041 0.416345983743667603
0.361898154020309448 0.344129383563995361 0.157357677817344666
0.261517196893692017 -0.279160469770431519 0.316559642553329468
0.380305260419845581 -0.0744956880807876587 0.323893457651138306
0.442924290895462036 0.308459877967834473 0.116274423897266388
0.502412796020507812 0.132749885320663452 0.236216247081756592
0.397965699434280396 0.331622451543807983 0.176341727375984192
0.301940590143203735 0.412986993789672852 0.271983593702316284
0.385913163423538208 0.351368516683578491 0.137860506772994995
0.504614949226379395 0.122695162892341614 0.226773113012313843
0.229299351572990417 0.43641933798789978 0.292707234621047974
-0.310571014881134033 -0.432768285274505615 0.358090221881866455
-0.349313229322433472 -0.429459214210510254 0.382065534591674805
0.537520408630371094 0.100993044674396515 0.259550005197525024
-0.186138391494750977 -0.446595668792724609 0.397755235433578491
0.413009017705917358 0.279936254024505615 0.194961026310920715
0.581346094608306885 0.165211811661720276 0.197121664881706238
-0.310099005699157715 -0.470502793788909912 0.411855816841125488
0.584292173385620117 0.178649485111236572 0.123739294707775116
0.323916167020797729 0.372451245784759521 0.17919960618019104
0.327166378498077393 -0.238358020782470703 0.381911545991897583
0.21401706337928772 -0.300523608922958374 0.337268054485321045
-0.116569049656391144 -0.440710395574569702 0.292448520660400391
-0.543121933937072754 -0.431368529796600342 0.429143756628036499
0.452368646860122681 -0.056832682341337204 0.347613364458084106
-0.41202312707901001 -0.421366572380065918 0.420905500650405884
0.309297442436218262 0.35172802209854126 0.200437113642692566
0.502968370914459229 0.0032742770854383707 0.300413548946380615
-0.653183043003082275 -0.313832849264144897 0.374928832054138184
0.17968238890171051 0.423359304666519165 0.373413830995559692
0.275000035762786865 0.427386254072189331 0.246912181377410889
0.429425030946731567 -0.0222798604518175125 0.338762372732162476
0.443411648273468018 0.316320866346359253 0.119014859199523926
0.606202185153961182 0.236105963587760925 0.0711097493767738342
-0.102136574685573578 -0.440258622169494629 0.341403007507324219
0.417253255844116211 -0.090951770544052124 0.395195186138153076
0.311805814504623413 0.392454952001571655 0.214367449283599854
0.0151864420622587204 -0.447951406240463257 0.323259919881820679
0.11712617427110672 -0.364850640296936035 0.319076955318450928
0.489586621522903442 0.0689030438661575317 0.323377311229705811
0.38844066858291626 0.377936899662017822 0.197662532329559326
0.239975422620773315 -0.302101761102676392 0.336287111043930054
0.238389313220977783 -0.303277581930160522 0.307500004768371582
0.179296493530273438 0.451193422079086304 0.331494539976119995
-0.0695697516202926636 -0.438473790884017944 0.335275650024414062
0.582230925559997559 0.274134784936904907 0.0804120153188705444
0.25938117504119873 0.449490517377853394 0.309161365032196045
0.30672001838684082 -0.27630162239074707 0.346684634685516357
-0.213490277528762817 -0.43569532036781311 0.437616825103759766
0.572128951549530029 0.233431249856948853 0.0702587515115737915
0.122043505311012268 -0.35321083664894104 0.357782810926437378
0.451632797718048096 -0.0330251045525074005 0.282483607530593872
0.493300378322601318 -0.0165940765291452408 0.360549747943878174
0.179189622402191162 -0.338148713111877441 0.274965852499008179
-0.646073639392852783 -0.342029213905334473 0.372897565364837646
0.227627038955688477 0.435295522212982178 0.332007855176925659
-0.16312021017074585 -0.415216684341430664 0.378397911787033081
0.244233325123786926 -0.326987892389297485 0.311278283596038818
0.39619407057762146 -0.155409350991249084 0.354330718517303467
0.400594741106033325 -0.0796360746026039124 0.349412679672241211
0.500941693782806396 0.0363118425011634827 0.308606237173080444
-0.361857503652572632 -0.449604302644729614 0.389480173587799072
0.439392954111099243 0.370726853609085083 0.186631977558135986
-0.612391233444213867 -0.392355263233184814 0.380387663841247559
0.402762293815612793 0.403082877397537231 0.176301091909408569
0.539598047733306885 0.199367687106132507 0.168846637010574341
-0.461889207363128662 -0.444355100393295288 0.44263109564781189
0.388555407524108887 0.313634037971496582 0.126436293125152588
-0.238093540072441101 -0.41990351676940918 0.423930376768112183
0.544618070125579834 0.256118714809417725 0.112686686217784882
0.498713701963424683 0.12350957840681076 0.229218274354934692
0.499411493539810181 0.0194581728428602219 0.30206027626991272
0.508475244045257568 0.266096174716949463 -0.0641730427742004395
-0.571294546127319336 -0.424076288938522339 0.420665711164474487
0.339308768510818481 0.409584015607833862 0.218409910798072815
0.477071166038513184 0.0416349545121192932 0.306113302707672119
-0.637710154056549072 -0.278697043657302856 0.377741843461990356
0.52915489673614502 0.302671432495117188 0.0861499905586242676
0.517403542995452881 0.286678045988082886 0.119500942528247833
0.518072903156280518 0.134307160973548889 0.223065823316574097
0.295584708452224731 -0.266419649124145508 0.357866168022155762
0.411498308181762695 -0.113584071397781372 0.396846950054168701
0.321807026863098145 0.417345583438873291 0.243592679500579834
0.527667522430419922 0.244804441928863525 -0.00662886863574385643
0.43461763858795166 0.333748698234558105 0.113828845322132111
0.075574725866317749 -0.40309596061706543 0.309747070074081421
0.498445510864257812 0.239643916487693787 0.0668001100420951843
0.470875293016433716 0.269837379455566406 0.16593603789806366
0.200615942478179932 0.470813959836959839 0.304364293813705444
0.37190401554107666 0.375724345445632935 0.214129149913787842
-0.208841964602470398 -0.442008644342422485 0.427447289228439331
0.184622973203659058 -0.334059834480285645 0.328528344631195068
0.290849119424819946 -0.266300231218338013 0.342910170555114746
0.103051051497459412 -0.345861375331878662 0.311387985944747925
0.523105263710021973 0.19889204204082489 -0.0677200183272361755
0.384122937917709351 -0.17608092725276947 0.343223392963409424
0.519132375717163086 0.298452526330947876 0.0927513465285301208
0.560632526874542236 0.106384895741939545 0.313728809356689453
0.197437629103660583 0.445138633251190186 0.344996631145477295
0.550619661808013916 0.173678860068321228 0.20997309684753418
0.472853392362594604 0.00462313182651996613 0.328148722648620605
0.238297969102859497 0.44494330883026123 0.343967825174331665
0.454737216234207153 -0.043162371963262558 0.351220667362213135
0.37507060170173645 0.339948385953903198 0.152363985776901245
0.461490273475646973 0.0789795219898223877 0.243339091539382935
0.451950103044509888 -0.0596790425479412079 0.306252956390380859
-0.127170681953430176 -0.401236206293106079 0.376420855522155762
0.355373114347457886 0.49505278468132019 0.220464691519737244
0.387594938278198242 0.371179968118667603 0.158258214592933655
0.548294186592102051 0.206391125917434692 0.0926332473754882812
0.0585411116480827332 -0.363524794578552246 0.312244147062301636
0.529607236385345459 0.17076699435710907 0.157568499445915222
0.303037017583847046 0.37860405445098877 0.228667110204696655
0.475443542003631592 0.179808348417282104 0.186069905757904053
0.240361779928207397 0.471072107553482056 0.36639818549156189
0.332244813442230225 0.422836512327194214 0.212964564561843872
0.555242061614990234 0.318724155426025391 0.0527406856417655945
0.510921239852905273 0.165108203887939453 0.194916054606437683
0.110155194997787476 -0.325785607099533081 0.330148220062255859
-0.334833025932312012 -0.413781911134719849 0.39169880747795105
0.371054649353027344 0.412193834781646729 0.216387316584587097
0.417282700538635254 0.272051453590393066 0.101277567446231842
0.356239497661590576 -0.169399335980415344 0.395234525203704834
0.549125850200653076 0.26489710807800293 0.0552719198167324066
0.367739826440811157 -0.187416806817054749 0.324833661317825317
0.43253016471862793 -0.0284975804388523102 0.324844151735305786
0.564001023769378662 0.284434080123901367 0.0743524134159088135
0.505443274974822998 0.153359413146972656 0.174921080470085144
0.495731920003890991 0.0159288551658391953 0.339511692523956299
0.466555535793304443 0.304326236248016357 0.127837494015693665
0.515136599540710449 0.262395679950714111 -0.0211094841361045837
0.539773166179656982 0.290763139724731445 0.104438707232475281
0.341986566781997681 0.425199210643768311 0.216802239418029785
0.265187859535217285 -0.261649489402770996 0.360825687646865845
0.551370203495025635 0.228553503751754761 0.00185123516712337732
0.313021957874298096 -0.225036904215812683 0.372570186853408813
0.179237663745880127 0.49248802661895752 0.300249755382537842
0.302239030599594116 0.412265747785568237 0.218758583068847656
0.544114530086517334 0.0188278555870056152 0.329278469085693359
0.0777009353041648865 0.486086487770080566 0.263563156127929688
-0.0885045304894447327 -0.412312239408493042 0.330939114093780518
0.0911427438259124756 -0.354674011468887329 0.279189229011535645
0.50986248254776001 0.0738317817449569702 0.2555350661277771
0.29461023211479187 -0.243326812982559204 0.363865971565246582
-0.617781758308410645 -0.382826179265975952 0.372668057680130005
0.412381023168563843 0.353721350431442261 0.137102812528610229
0.220591023564338684 -0.320322662591934204 0.338946044445037842
0.472555696964263916 0.282478541135787964 0.0923580527305603027
0.0239500012248754501 -0.34912562370300293 0.32510492205619812
0.439303755760192871 -0.0897815078496932983 0.329261273145675659
0.542622804641723633 0.0257279779762029648 0.295967131853103638
0.172334790229797363 0.505394458770751953 0.313007354736328125
0.526251077651977539 0.0689066424965858459 0.291134059429168701
0.40918278694152832 -0.0910548865795135498 0.347015231847763062
0.374285012483596802 -0.102655693888664246 0.371961265802383423
0.61452031135559082 0.225491046905517578 0.138182953000068665
0.451086670160293579 -0.00639465590938925743 0.336549878120422363
0.249528884887695312 -0.319933861494064331 0.30298691987991333
0.400620728731155396 -0.0597447603940963745 0.340948730707168579
0.299192458391189575 0.445734947919845581 0.271649837493896484
0.517402231693267822 0.282518982887268066 0.0670463070273399353
0.386119604110717773 0.356359690427780151 0.247304156422615051
0.536748886108398438 0.312879770994186401 0.057767968624830246
0.516564905643463135 0.213519245386123657 -0.0104580847546458244
0.568795680999755859 0.259436905384063721 0.0399480462074279785
0.0477235279977321625 -0.409513264894485474 0.365341871976852417
0.3281058669090271 -0.14870549738407135 0.380537986755371094
0.567426025867462158 0.234144553542137146 0.0542861707508563995
0.478919655084609985 0.135204493999481201 0.216078445315361023
0.240547209978103638 0.472944796085357666 0.332809507846832275
0.31475830078125 -0.245513886213302612 0.369753122329711914
-0.524854660034179688 -0.435287177562713623 0.418570578098297119
-0.614544808864593506 -0.39792284369468689 0.372482240200042725
0.0869267508387565613 0.489815384149551392 0.286652207374572754
0.262308329343795776 0.436804652214050293 0.274981200695037842
0.415097445249557495 -0.141664013266563416 0.350802481174468994
0.487066358327865601 0.00689288601279258728 0.33352893590927124
0.514120399951934814 0.284619599580764771 0.0977661758661270142
0.488452553749084473 0.0861786529421806335 0.279226213693618774
0.557802557945251465 0.0815481171011924744 0.269099593162536621
0.560949325561523438 0.182765603065490723 0.130111768841743469
0.261353373527526855 0.447115123271942139 0.273086279630661011
0.32942122220993042 0.432865738868713379 0.261489897966384888
0.399044394493103027 -0.062226124107837677 0.33779752254486084
-0.534118711948394775 -0.400778859853744507 0.408445417881011963
0.388554155826568604 0.311745107173919678 0.145456522703170776
-0.105882667005062103 -0.41301339864730835 0.328562289476394653
0.502243578433990479 0.189327746629714966 0.243223279714584351
-0.539817571640014648 -0.414567232131958008 0.419086158275604248
0.0843616873025894165 0.52034682035446167 0.301959574222564697
0.351814985275268555 0.375508248805999756 0.209793046116828918
-0.533281683921813965 -0.390296101570129395 0.412930846214294434
0.252038061618804932 -0.32888329029083252 0.318013995885848999
0.195309340953826904 -0.331823378801345825 0.333336561918258667
0.352482855319976807 -0.180536732077598572 0.35664859414100647
0.354459583759307861 -0.16358397901058197 0.400173842906951904
0.57024914026260376 0.132512450218200684 0.210772603750228882
0.531938612461090088 0.167417153716087341 0.242038950324058533
0.439944595098495483 0.315192699432373047 0.172049269080162048
0.534073531627655029 0.0934843346476554871 0.295756012201309204
-0.115176483988761902 -0.419036358594894409 0.346158891916275024
0.463030755519866943 0.276426702737808228 0.129722937941551208
0.46617501974105835 0.25233885645866394 0.091648593544960022
0.516591846942901611 0.0140371201559901237 0.30512586236000061
0.370621055364608765 -0.152952507138252258 0.356284767389297485
0.305718690156936646 -0.250441908836364746 0.328306615352630615
0.47055777907371521 0.274891853332519531 0.118297070264816284
0.488614022731781006 0.244342803955078125 -0.00632646866142749786
0.179072648286819458 -0.328930169343948364 0.311642557382583618
0.177892029285430908 0.452007770538330078 0.352113932371139526
0.315325498580932617 -0.16605493426322937 0.369061827659606934
-0.223734274506568909 -0.428387552499771118 0.395604878664016724
0.0465986765921115875 -0.345837920904159546 0.34226614236831665
0.264063060283660889 0.468186438083648682 0.307554811239242554
0.116671130061149597 -0.35238310694694519 0.337159812450408936
0.526400566101074219 0.118321433663368225 0.201525643467903137
-0.147324874997138977 -0.418590933084487915 0.369192242622375488
-0.615711987018585205 -0.287033528089523315 0.378109455108642578
0.430056869983673096 0.296218842267990112 0.0959899052977561951
0.331623196601867676 0.433166295289993286 0.189971163868904114
0.523874163627624512 0.282531499862670898 0.119453482329845428
0.363492876291275024 -0.109153322875499725 0.364204287528991699
0.402350038290023804 -0.119572333991527557 0.357280582189559937
0.225681006908416748 0.439440101385116577 0.32548949122428894
0.310307472944259644 -0.193846642971038818 0.389389067888259888
0.244297444820404053 0.460884451866149902 0.314319193363189697
0.0549901090562343597 -0.368464082479476929 0.325018018484115601
-0.328070789575576782 -0.445930063724517822 0.411341995000839233
0.0753639265894889832 -0.370673656463623047 0.355318546295166016
0.58886408805847168 0.297483205795288086 0.063989490270614624
0.344841688871383667 -0.125943750143051147 0.346415072679519653
0.331386774778366089 -0.304070651531219482 0.365213453769683838
0.273995459079742432 -0.245715931057929993 0.33199310302734375
0.204012095928192139 -0.277010798454284668 0.377180635929107666
-0.0256565399467945099 -0.431719154119491577 0.352214068174362183
0.492387205362319946 0.0859950557351112366 0.31135895848274231
0.287718296051025391 0.420208215713500977 0.249174118041992188
-0.0350746437907218933 -0.413007229566574097 0.335767567157745361
0.213009670376777649 0.452404677867889404 0.33708527684211731
0.454310357570648193 0.325053483247756958 0.112067870795726776
0.555892705917358398 0.117763973772525787 0.197245240211486816
-0.483695715665817261 -0.438220709562301636 0.428316175937652588
-0.645948231220245361 -0.360414832830429077 0.365891367197036743
0.407914727926254272 -0.0698222145438194275 0.358176529407501221
0.394607871770858765 0.36801755428314209 0.173344910144805908
0.511860668659210205 0.136758133769035339 0.234211549162864685
0.184886351227760315 0.445020467042922974 0.326751470565795898
-0.377978503704071045 -0.460229873657226562 0.411588609218597412
0.501050651073455811 0.154371708631515503 0.189594686031341553
0.388431757688522339 -0.184550866484642029 0.321493655443191528
-0.409176945686340332 -0.438553750514984131 0.441050708293914795
0.419287264347076416 -0.00695580057799816132 0.35972905158996582
0.510737359523773193 0.137667477130889893 0.242681443691253662
0.284528166055679321 0.450547516345977783 0.231908828020095825
0.568133056163787842 0.196788430213928223 0.139604970812797546
0.492463260889053345 0.333289384841918945 0.0834893658757209778
0.577888727188110352 0.220117643475532532 0.0900372713804244995
0.298536211252212524 -0.276021331548690796 0.343827217817306519
0.0412679389119148254 -0.339023083448410034 0.306500047445297241
-0.19498637318611145 -0.406534254550933838 0.412689059972763062
0.316148191690444946 0.426747739315032959 0.25170484185218811
0.582342922687530518 0.180086225271224976 0.114428319036960602
0.354757189750671387 0.424660414457321167 0.212849736213684082
0.21293264627456665 -0.321185410022735596 0.316615700721740723
0.380608975887298584 -0.10284896194934845 0.388736844062805176
0.548494875431060791 0.1694612056016922 0.198872625827789307
0.553550004959106445 0.212491706013679504 0.141131594777107239
0.533698558807373047 0.0380249582231044769 0.255330651998519897
0.640345871448516846 0.201103806495666504 0.0277118328958749771
0.345748037099838257 0.375802516937255859 0.174927070736885071
0.0183443017303943634 0.504592359066009521 0.306816250085830688
0.456526845693588257 0.292762458324432373 0.149980902671813965
-0.0424770563840866089 -0.417303085327148438 0.323769748210906982
0.457391440868377686 -0.0437279939651489258 0.275551706552505493
0.337090849876403809 -0.206970095634460449 0.389509528875350952
0.278477698564529419 0.431548953056335449 0.24367736279964447
-0.545487761497497559 -0.383824348449707031 0.407928794622421265
0.143174916505813599 0.426102936267852783 0.375473231077194214
0.539415061473846436 0.252920806407928467 0.0457199998199939728
0.54280012845993042 0.187878310680389404 0.173031225800514221
0.582437098026275635 0.182131350040435791 0.0890383794903755188
-0.400429874658584595 -0.436373651027679443 0.428801089525222778
0.58043515682220459 0.0301966313272714615 0.303079754114151001
0.510214626789093018 0.227036178112030029 -0.00722201168537139893
0.306330084800720215 -0.196989178657531738 0.363564640283584595
0.273544430732727051 -0.275031715631484985 0.323674201965332031
0.581133484840393066 0.275657922029495239 0.0784351825714111328
0.558362901210784912 0.0604559034109115601 0.275732249021530151
0.533053040504455566 0.227347686886787415 0.0645309239625930786
0.481353878974914551 -0.0157761424779891968 0.317886263132095337
0.441408008337020874 -0.0453034937381744385 0.369976907968521118
0.139183700084686279 0.429017573595046997 0.326256066560745239
0.500881075859069824 0.0524643957614898682 0.329746633768081665
-0.162308946251869202 -0.379727602005004883 0.34733814001083374
0.361276119947433472 0.337711364030838013 0.191336348652839661
0.514943540096282959 0.161874175071716309 0.100335568189620972
0.37470129132270813 0.346752911806106567 0.173430919647216797
0.575777828693389893 0.276045620441436768 0.0574063993990421295
0.519732177257537842 0.0635081082582473755 0.291420459747314453
0.414641618728637695 0.354179710149765015 0.245356976985931396
0.0879613757133483887 0.483753591775894165 0.308771133422851562
0.397747725248336792 -0.100724287331104279 0.340283483266830444
0.546248912811279297 0.255384862422943115 0.0301092751324176788
0.220711857080459595 0.508622348308563232 0.327940523624420166
0.49204292893409729 0.0662209615111351013 0.264405995607376099
0.549329757690429688 0.16289934515953064 0.155565395951271057
0.0815933197736740112 -0.365841478109359741 0.34682774543762207
0.34900936484336853 0.358042359352111816 0.174166470766067505
0.367370635271072388 -0.168458282947540283 0.310960084199905396
0.11986318975687027 0.430793881416320801 0.362980037927627563
0.555805623531341553 0.0982818901538848877 0.245951786637306213
-0.0567635521292686462 -0.404767423868179321 0.296060860157012939
0.174486070871353149 0.488699793815612793 0.280045688152313232
0.500477194786071777 0.128650754690170288 0.249774977564811707
0.534121215343475342 0.0691514685750007629 0.261300474405288696
0.144380718469619751 -0.356079012155532837 0.337957143783569336
-0.1408119797706604 -0.428598314523696899 0.351663708686828613
-0.608038127422332764 -0.42568632960319519 0.392669022083282471
-0.460979998111724854 -0.400483250617980957 0.419917494058609009
0.2767600417137146 0.449886560440063477 0.218547433614730835
0.332474499940872192 0.330804347991943359 0.171228185296058655
0.313789486885070801 -0.132913306355476379 0.362052083015441895
0.173995986580848694 -0.345748841762542725 0.346429973840713501
0.4602699875831604 -0.0104910572990775108 0.324519813060760498
0.314863979816436768 -0.200243934988975525 0.306947052478790283
0.368777722120285034 0.355811953544616699 0.149431124329566956
0.485523372888565063 0.0546526350080966949 0.286973834037780762
0.280639499425888062 0.467345565557479858 0.257843345403671265
0.503140866756439209 -0.0243980921804904938 0.32655671238899231
0.489040136337280273 -0.0161584373563528061 0.320948094129562378
0.58125990629196167 0.240952104330062866 0.0837554931640625
0.584455788135528564 0.182942882180213928 0.190372288227081299
0.375022798776626587 -0.138656899333000183 0.362199783325195312
0.244850710034370422 -0.24994504451751709 0.401378631591796875
0.555954217910766602 0.19490349292755127 0.11153838038444519
0.321621567010879517 -0.197444677352905273 0.403873860836029053
0.256167471408843994 0.472949355840682983 0.302541404962539673
0.443270027637481689 -0.050325300544500351 0.34464988112449646
0.380598604679107666 0.363179296255111694 0.198581099510192871
0.377287238836288452 0.347772717475891113 0.152873501181602478
-0.153495952486991882 -0.400171667337417603 0.422999083995819092
0.382745087146759033 -0.0920092314481735229 0.384481966495513916
0.407448768615722656 -0.0812474191188812256 0.379593133926391602
0.388391435146331787 0.271788626909255981 0.169306144118309021
0.382219582796096802 -0.0934718474745750427 0.341020494699478149
0.0940729156136512756 0.499505162239074707 0.296935766935348511
0.582613706588745117 0.241113811731338501 0.0314225256443023682
0.580888688564300537 0.26848188042640686 0.0655832439661026001
-0.0935159623622894287 -0.438149720430374146 0.312858253717422485
0.489883452653884888 -0.0074331182986497879 0.274963110685348511
-0.187212616205215454 -0.408513665199279785 0.413170218467712402
0.572731494903564453 0.264406353235244751 0.0498984381556510925
0.507973253726959229 0.0858592018485069275 0.300018370151519775
-0.475184887647628784 -0.466597944498062134 0.428591430187225342
0.531020164489746094 0.218921169638633728 0.0266179032623767853
0.55378413200378418 0.201860383152961731 0.0993854925036430359
0.415869772434234619 0.218943595886230469 0.16452595591545105
-0.653474330902099609 -0.28079676628112793 0.336444169282913208
0.535574555397033691 0.179999694228172302 0.24421064555644989
0.479587912559509277 -0.0220459029078483582 0.272866100072860718
0.316507935523986816 0.356757640838623047 0.209914609789848328
0.25607764720916748 0.480701714754104614 0.270671725273132324
0.349283874034881592 0.369272083044052124 0.176953896880149841
0.541508853435516357 0.151219800114631653 0.21371738612651825
0.394650399684906006 -0.132466778159141541 0.354926377534866333
0.585071980953216553 0.255564481019973755 0.0520689375698566437
0.594809591770172119 0.206447616219520569 0.00343378284014761448
0.345719099044799805 0.410220414400100708 0.199865370988845825
-0.612031996250152588 -0.397930234670639038 0.402448743581771851
0.153782710433006287 0.420148909091949463 0.37755739688873291
0.480698049068450928 0.18510165810585022 0.221471354365348816
0.495814621448516846 0.182300791144371033 0.158242195844650269
0.495981872081756592 0.257059574127197266 -0.053225390613079071
-0.226485550403594971 -0.424281805753707886 0.402187228202819824
0.373460531234741211 -0.197345197200775146 0.323979079723358154
0.430482774972915649 -0.0643774345517158508 0.364466309547424316
-0.205636858940124512 -0.408069044351577759 0.426186144351959229
0.528595626354217529 0.0692273527383804321 0.254094868898391724
0.57214820384979248 0.260158509016036987 -0.00654906686395406723
0.100156806409358978 0.483877807855606079 0.321302294731140137
0.488736629486083984 0.0817245319485664368 0.28279191255569458
0.555185794830322266 0.246025696396827698 0.071507669985294342
0.507281661033630371 0.0549377351999282837 0.292790353298187256
0.279594004154205322 0.388596594333648682 0.17523975670337677
0.270695745944976807 -0.319807976484298706 0.362963110208511353
0.584389209747314453 0.191995054483413696 0.0393300093710422516
0.314199775457382202 0.398432672023773193 0.233659997582435608
0.588181495666503906 0.238675177097320557 0.110372379422187805
0.382014930248260498 -0.201511755585670471 0.400427311658859253
0.350833415985107422 -0.188525587320327759 0.380379736423492432
0.481678485870361328 0.272006124258041382 -0.0630470886826515198
0.50939333438873291 0.151838421821594238 0.129013881087303162
-0.0586784444749355316 -0.402978241443634033 0.367812126874923706
0.572638809680938721 0.258805990219116211 0.0153840892016887665
