ply
format ascii 1.0
element vertex 730
comment vertices
property float x
property float y
property float z
end_header
0.200096830725669861 -0.153380006551742554 -0.387782454490661621
-0.357100963592529297 0.00402795290574431419 -0.401551574468612671
0.439108490943908691 -0.0662844255566596985 -0.0896158739924430847
0.324266642332077026 -0.130184486508369446 -0.321727395057678223
0.154523491859436035 -0.167770415544509888 -0.386141389608383179
-0.173136666417121887 -0.0935869291424751282 -0.419649809598922729
-0.139823243021965027 -0.114525765180587769 -0.429797202348709106
0.0592163912951946259 -0.190903440117835999 -0.474269181489944458
-0.3747996985912323 0.145308524370193481 -0.339338868856430054
0.249643012881278992 -0.17671087384223938 -0.368073880672454834
0.402100503444671631 -0.152132734656333923 -0.313718914985656738
-0.373379617929458618 -0.0260384064167737961 -0.415763139724731445
0.0554649308323860168 -0.187998056411743164 -0.416956722736358643
-0.363629430532455444 0.0156888477504253387 -0.417964547872543335
0.421710193157196045 -0.117781683802604675 -0.215412214398384094
-0.0188147854059934616 -0.122954189777374268 -0.424526125192642212
0.424559146165847778 -0.102105274796485901 -0.170890331268310547
-0.339074820280075073 0.0273661576211452484 -0.382316708564758301
0.467509657144546509 -0.0732914581894874573 -0.163700655102729797
0.194931551814079285 -0.13886590301990509 -0.389124214649200439
0.234684929251670837 -0.188479959964752197 -0.381401807069778442
0.393329381942749023 -0.113937199115753174 -0.175129711627960205
-0.376195132732391357 0.132163777947425842 -0.323534339666366577
0.405781447887420654 -0.145238310098648071 -0.291069895029067993
0.0615030452609062195 -0.131927996873855591 -0.393134653568267822
0.366008877754211426 -0.135410010814666748 -0.284656763076782227
-0.350261092185974121 -0.00337639288045465946 -0.421253383159637451
-0.00109544629231095314 -0.139646023511886597 -0.394083589315414429
0.278195947408676147 -0.157474130392074585 -0.397496432065963745
0.461276888847351074 -0.0470073223114013672 -0.135376870632171631
0.180272340774536133 -0.154485732316970825 -0.390729814767837524
-0.110164374113082886 -0.0976108461618423462 -0.434482306241989136
-0.111337862908840179 -0.084729708731174469 -0.422415465116500854
0.123575568199157715 -0.186431452631950378 -0.408201456069946289
0.499341338872909546 -0.0683489888906478882 -0.111017107963562012
0.454076945781707764 -0.0641363933682441711 -0.121905110776424408
-0.324606209993362427 0.0566224418580532074 -0.396468967199325562
-0.152405276894569397 -0.121108271181583405 -0.438659429550170898
0.345224887132644653 -0.125611767172813416 -0.263544917106628418
-0.355538845062255859 0.141192734241485596 -0.323874562978744507
0.218168959021568298 -0.164067059755325317 -0.446030855178833008
-0.405087023973464966 0.0203024465590715408 -0.394612312316894531
-0.0422864519059658051 -0.15488608181476593 -0.40724608302116394
-0.357587039470672607 0.125443145632743835 -0.296475410461425781
-0.364703178405761719 0.00584572972729802132 -0.373117178678512573
-0.326593846082687378 0.101883120834827423 -0.346470773220062256
-0.392697989940643311 0.082232944667339325 -0.353072583675384521
0.3078899085521698 -0.180392354726791382 -0.291973471641540527
0.284852057695388794 -0.134735614061355591 -0.339003533124923706
-0.308954566717147827 0.0816919505596160889 -0.395135074853897095
0.399263918399810791 -0.0968514904379844666 -0.265089213848114014
0.414083570241928101 -0.087067045271396637 -0.0994258299469947815
-0.380701690912246704 0.0286391880363225937 -0.371042549610137939
0.161653995513916016 -0.16206766664981842 -0.408358752727508545
-0.363148957490921021 0.0397158637642860413 -0.363144576549530029
-0.0657776892185211182 -0.0866988301277160645 -0.434866666793823242
-0.100255712866783142 -0.100023515522480011 -0.442799478769302368
0.423084646463394165 -0.0515347123146057129 -0.113784439861774445
0.221745133399963379 -0.173686519265174866 -0.34374237060546875
-0.341352164745330811 -0.0240449421107769012 -0.37015688419342041
0.33092498779296875 -0.175761327147483826 -0.307436853647232056
0.165345281362533569 -0.171388894319534302 -0.42256629467010498
0.406303524971008301 -0.127468317747116089 -0.205878600478172302
0.464908987283706665 -0.0531560629606246948 -0.152431562542915344
0.411245495080947876 -0.0708882659673690796 -0.0832659900188446045
0.430422335863113403 -0.102391801774501801 -0.13748738169670105
-0.350447922945022583 0.0990299507975578308 -0.382509589195251465
0.381401866674423218 -0.0827827081084251404 -0.197331979870796204
0.458999335765838623 -0.0615569576621055603 -0.115665510296821594
-0.308632761240005493 -0.0591133236885070801 -0.401610791683197021
-0.30844801664352417 -0.0383293367922306061 -0.400400072336196899
-0.346864819526672363 0.149538338184356689 -0.334650039672851562
0.399877846240997314 -0.103896148502826691 -0.18614920973777771
0.463965803384780884 -0.0702576488256454468 -0.0689233094453811646
0.269485831260681152 -0.174767613410949707 -0.366925269365310669
-0.353704959154129028 0.097926408052444458 -0.362194359302520752
0.321646958589553833 -0.147481650114059448 -0.269664615392684937
-0.211419552564620972 -0.0783750563859939575 -0.402552306652069092
-0.0417796522378921509 -0.130431652069091797 -0.434927225112915039
0.308853507041931152 -0.160070076584815979 -0.324073523283004761
0.45129162073135376 -0.0800587162375450134 -0.14708729088306427
0.152868404984474182 -0.139975190162658691 -0.414382517337799072
0.518725097179412842 -0.0997693538665771484 -0.116033345460891724
-0.251672595739364624 -0.0841481685638427734 -0.419354110956192017
0.0593660026788711548 -0.168995872139930725 -0.445411026477813721
0.426395446062088013 -0.043262530118227005 -0.1424751877784729
0.311747521162033081 -0.17070324718952179 -0.316969066858291626
0.295844286680221558 -0.140540897846221924 -0.346571832895278931
0.443841457366943359 -0.0616731904447078705 -0.127997100353240967
0.40854451060295105 -0.125462114810943604 -0.212887227535247803
-0.38675341010093689 0.0118081942200660706 -0.379377394914627075
0.332972049713134766 -0.140597447752952576 -0.259551256895065308
0.323279231786727905 -0.16839250922203064 -0.330731838941574097
0.258990705013275146 -0.128873512148857117 -0.36163744330406189
0.223901689052581787 -0.191173508763313293 -0.394421756267547607
-0.237348243594169617 -0.103321202099323273 -0.396272927522659302
-0.365377634763717651 0.102150298655033112 -0.404186904430389404
0.0729496106505393982 -0.163216650485992432 -0.439466923475265503
-0.34514734148979187 0.126815199851989746 -0.345641285181045532
0.447406738996505737 -0.0607433021068572998 -0.101928628981113434
0.263653695583343506 -0.17240375280380249 -0.33665129542350769
0.455003261566162109 -0.023531036451458931 -0.0930568650364875793
-0.253894567489624023 -0.0969961360096931458 -0.439595222473144531
0.426413476467132568 -0.0152540178969502449 -0.103639595210552216
0.360561281442642212 -0.160778865218162537 -0.279282450675964355
-0.362098902463912964 0.147600993514060974 -0.289511352777481079
-0.395208358764648438 0.0468906909227371216 -0.366856902837753296
0.456255495548248291 -0.0344141386449337006 -0.146304070949554443
0.448002249002456665 -0.144736677408218384 -0.130857139825820923
-0.161903664469718933 -0.136654719710350037 -0.430556446313858032
-0.332586437463760376 -0.0537309572100639343 -0.370334863662719727
0.050135146826505661 -0.140793725848197937 -0.433700293302536011
0.36100122332572937 -0.188023179769515991 -0.330673158168792725
-0.389778077602386475 0.0445952937006950378 -0.35903012752532959
-0.35101318359375 0.0356293767690658569 -0.386641532182693481
0.445721894502639771 -0.0664141103625297546 -0.139652624726295471
-0.142618522047996521 -0.0922711491584777832 -0.401294291019439697
-0.391642272472381592 0.120287708938121796 -0.366343259811401367
-0.376691162586212158 0.0874988287687301636 -0.402828127145767212
0.0548828840255737305 -0.130071446299552917 -0.415777057409286499
0.103729672729969025 -0.165879175066947937 -0.438030660152435303
0.372297614812850952 -0.0930748507380485535 -0.210401728749275208
0.141946390271186829 -0.164701104164123535 -0.383409112691879272
0.0140859438106417656 -0.123959667980670929 -0.45218309760093689
-0.354013592004776001 0.1303129643201828 -0.296581774950027466
0.346962034702301025 -0.165767207741737366 -0.304196655750274658
-0.0469007976353168488 -0.117475308477878571 -0.419018268585205078
0.143407925963401794 -0.169805720448493958 -0.384529709815979004
0.363207310438156128 -0.151732563972473145 -0.286567479372024536
0.369714915752410889 -0.124573074281215668 -0.246193930506706238
0.356432825326919556 -0.143218532204627991 -0.247536510229110718
0.201102286577224731 -0.152762502431869507 -0.425075352191925049
-0.351095318794250488 -0.0169422738254070282 -0.388918042182922363
-0.220681816339492798 -0.0802908837795257568 -0.430428117513656616
-0.332625538110733032 -0.000359759171260520816 -0.368964940309524536
0.464161604642868042 -0.0815717056393623352 -0.0960165411233901978
0.302110791206359863 -0.156048893928527832 -0.341211497783660889
0.358079969882965088 -0.118692710995674133 -0.250749170780181885
-0.394132941961288452 0.0450840741395950317 -0.371525853872299194
-0.154235899448394775 -0.126859962940216064 -0.442199081182479858
0.0305753499269485474 -0.151854947209358215 -0.416230380535125732
0.143187105655670166 -0.183953225612640381 -0.387825876474380493
0.35899507999420166 -0.131196886301040649 -0.261990904808044434
0.423213839530944824 -0.0191236641258001328 -0.0695502832531929016
0.388574928045272827 -0.0791416168212890625 -0.217997938394546509
0.334262937307357788 -0.108325377106666565 -0.296247690916061401
0.292171895503997803 -0.168659180402755737 -0.368364125490188599
0.273665428161621094 -0.129640311002731323 -0.254118829965591431
0.300967574119567871 -0.157766208052635193 -0.30609622597694397
0.163010731339454651 -0.183350801467895508 -0.420709371566772461
-0.171104103326797485 -0.113334000110626221 -0.414241373538970947
0.0566528663039207458 -0.162045389413833618 -0.409299671649932861
0.0195538494735956192 -0.119352042675018311 -0.437264859676361084
-0.192549780011177063 -0.102906391024589539 -0.449217528104782104
0.182215571403503418 -0.155187949538230896 -0.419032156467437744
-0.414448320865631104 0.0980621874332427979 -0.379795819520950317
0.398485004901885986 -0.0736889094114303589 -0.246988996863365173
-0.380532741546630859 0.0334156006574630737 -0.385864764451980591
0.330243825912475586 -0.142058521509170532 -0.272873282432556152
0.461238980293273926 -0.0439696349203586578 -0.101246766746044159
0.33025476336479187 -0.121016897261142731 -0.279474884271621704
0.443508744239807129 -0.135012209415435791 -0.175586715340614319
-0.357506424188613892 0.122155696153640747 -0.326169699430465698
0.396826863288879395 -0.0771530047059059143 -0.29008406400680542
-0.365120768547058105 -0.00328399473801255226 -0.370849490165710449
-0.212961107492446899 -0.0956021621823310852 -0.431201934814453125
-0.359176754951477051 0.070872969925403595 -0.361457765102386475
-0.387403160333633423 0.113710872828960419 -0.369750440120697021
-0.389613747596740723 0.0759606510400772095 -0.395660400390625
-0.239043563604354858 -0.0808152705430984497 -0.425926864147186279
0.432654052972793579 -0.117115460336208344 -0.259566545486450195
0.313671797513961792 -0.131328314542770386 -0.295189082622528076
0.0232114177197217941 -0.101657792925834656 -0.446077406406402588
-0.261206448078155518 -0.073000296950340271 -0.385850250720977783
-0.366829574108123779 0.0210562162101268768 -0.380672156810760498
0.261217743158340454 -0.142517209053039551 -0.374819725751876831
-0.387222588062286377 0.00334695796482264996 -0.402350634336471558
0.230618923902511597 -0.153270885348320007 -0.343878298997879028
-0.111867174506187439 -0.0897380039095878601 -0.394161909818649292
-0.368573993444442749 -0.00686809932813048363 -0.412371695041656494
0.226892098784446716 -0.156475663185119629 -0.384679317474365234
0.418419212102890015 -0.0600505843758583069 -0.190103337168693542
0.0307346787303686142 -0.0974168404936790466 -0.413016349077224731
-0.0380714572966098785 -0.151132687926292419 -0.425260573625564575
-0.19692617654800415 -0.129316568374633789 -0.370970934629440308
0.404241174459457397 -0.126331344246864319 -0.209715977311134338
-0.3418387770652771 0.10545676201581955 -0.364294588565826416
0.371862918138504028 -0.156361043453216553 -0.284511804580688477
0.375302731990814209 -0.0823449566960334778 -0.242997244000434875
0.441703468561172485 -0.11417696624994278 -0.153146922588348389
0.522236287593841553 -0.108958423137664795 -0.148628666996955872
0.475715368986129761 0.0216212905943393707 -0.0746461153030395508
0.27403828501701355 -0.15888608992099762 -0.333032816648483276
0.39927518367767334 -0.103170596063137054 -0.147508114576339722
0.354679375886917114 -0.1428556889295578 -0.277071356773376465
0.363583117723464966 -0.158114537596702576 -0.244036659598350525
0.427430659532546997 -0.107108660042285919 -0.168019518256187439
0.396855086088180542 -0.0762742161750793457 -0.182133525609970093
0.0386327765882015228 -0.144252240657806396 -0.427031576633453369
0.0462605617940425873 -0.169744744896888733 -0.423701107501983643
0.0497813709080219269 -0.147238597273826599 -0.437671750783920288
-0.140918448567390442 -0.106720365583896637 -0.435208439826965332
-0.21011333167552948 -0.110059723258018494 -0.438326090574264526
0.389812320470809937 -0.126444131135940552 -0.128438979387283325
0.298079222440719604 -0.148855119943618774 -0.33357277512550354
0.404013186693191528 -0.074420630931854248 -0.100421123206615448
0.457130074501037598 -0.0114291878417134285 -0.0835991725325584412
0.372306227684020996 -0.144815564155578613 -0.254357069730758667
-0.318979799747467041 -0.0316758193075656891 -0.373702198266983032
0.422544747591018677 -0.0724550336599349976 -0.203609824180603027
-0.233672499656677246 -0.0662469267845153809 -0.438518106937408447
0.0600174702703952789 -0.121545568108558655 -0.430373579263687134
-0.22315630316734314 -0.0940079689025878906 -0.426395237445831299
0.236220702528953552 -0.159405529499053955 -0.378945112228393555
0.336295396089553833 -0.129869207739830017 -0.260416388511657715
-0.198144480586051941 -0.0732076317071914673 -0.368956893682479858
0.44045218825340271 -0.116235509514808655 -0.198044672608375549
0.184067517518997192 -0.162111386656761169 -0.355246365070343018
-0.378828912973403931 -0.0220304857939481735 -0.375983864068984985
0.363227695226669312 -0.150489047169685364 -0.287901937961578369
0.12737765908241272 -0.161499947309494019 -0.409614384174346924
-0.150016993284225464 -0.112309269607067108 -0.383070021867752075
-0.376830339431762695 0.00616730423644185066 -0.425391614437103271
0.140440806746482849 -0.146950960159301758 -0.419076293706893921
0.395183175802230835 -0.145780056715011597 -0.277275621891021729
-0.368711322546005249 0.0794767588376998901 -0.366246134042739868
-0.249497860670089722 -0.0820061266422271729 -0.40647849440574646
-0.330576479434967041 -0.0181676503270864487 -0.427766621112823486
0.297022730112075806 -0.154969498515129089 -0.316937923431396484
-0.354977011680603027 -0.0457965023815631866 -0.36660495400428772
0.280766606330871582 -0.134134560823440552 -0.385806381702423096
0.469164460897445679 -0.0608099177479743958 -0.106234394013881683
0.421914428472518921 -0.0206400305032730103 -0.100495167076587677
0.375084728002548218 -0.117323637008666992 -0.225717142224311829
0.141400903463363647 -0.181850165128707886 -0.419468313455581665
-0.207891598343849182 -0.121486447751522064 -0.391944199800491333
-0.337189555168151855 -0.0661209598183631897 -0.400071591138839722
-0.370652943849563599 0.0647648870944976807 -0.391677707433700562
-0.170806720852851868 -0.0889262557029724121 -0.417424321174621582
0.359880805015563965 -0.102793954312801361 -0.188619300723075867
-0.328489303588867188 -0.0218324307352304459 -0.418704628944396973
0.324074149131774902 -0.129328638315200806 -0.243840023875236511
0.201039150357246399 -0.150318518280982971 -0.39532625675201416
0.0280495770275592804 -0.0940301567316055298 -0.425265789031982422
-0.367244541645050049 0.0261582303792238235 -0.392697721719741821
0.0378292873501777649 -0.132256492972373962 -0.441935360431671143
0.281084835529327393 -0.146850571036338806 -0.278433352708816528
0.211641564965248108 -0.169195637106895447 -0.382566779851913452
0.175364270806312561 -0.131671905517578125 -0.376520156860351562
0.123031705617904663 -0.15705561637878418 -0.468143999576568604
-0.125201299786567688 -0.0972927138209342957 -0.3818625807762146
0.474517673254013062 -0.0805426463484764099 -0.12132563441991806
0.301089972257614136 -0.121529780328273773 -0.320807337760925293
-0.368289202451705933 0.103572241961956024 -0.37148556113243103
-0.090889371931552887 -0.131487950682640076 -0.425091296434402466
0.404239743947982788 -0.0963991209864616394 -0.281630188226699829
0.472626626491546631 -0.0872112438082695007 -0.162915870547294617
0.454484432935714722 -0.106950394809246063 -0.2410421222448349
0.0733198970556259155 -0.126949325203895569 -0.42919573187828064
-0.389883249998092651 0.101128913462162018 -0.328266292810440063
-0.370393484830856323 -0.0430515818297863007 -0.371048808097839355
-0.348296761512756348 0.0762506946921348572 -0.367659240961074829
0.352215975522994995 -0.135461911559104919 -0.194978192448616028
0.123903617262840271 -0.162253305315971375 -0.420945256948471069
-0.0116852270439267159 -0.103410355746746063 -0.459181904792785645
-0.375340133905410767 0.0268114730715751648 -0.404794901609420776
0.431472480297088623 -0.0789445862174034119 -0.201241478323936462
0.379664003849029541 -0.135908350348472595 -0.284109413623809814
0.395067960023880005 -0.0666028931736946106 -0.154685482382774353
0.378308922052383423 -0.170920461416244507 -0.308747261762619019
0.245057284832000732 -0.154302388429641724 -0.375124841928482056
0.338556081056594849 -0.143467456102371216 -0.310499399900436401
-0.151466786861419678 -0.0917826667428016663 -0.394351661205291748
0.477884232997894287 -0.0465796217322349548 -0.0854967832565307617
-0.159865960478782654 -0.0924955904483795166 -0.409177660942077637
0.197175055742263794 -0.168608054518699646 -0.413087129592895508
-0.380665838718414307 0.140007779002189636 -0.346507251262664795
0.282745212316513062 -0.176983103156089783 -0.368035256862640381
0.41365012526512146 -0.0881124138832092285 -0.183728501200675964
0.343376010656356812 -0.0838163197040557861 -0.18443530797958374
0.17949250340461731 -0.146405220031738281 -0.38573947548866272
-0.335865229368209839 -0.0674073174595832825 -0.380017906427383423
-0.0829577967524528503 -0.10841803252696991 -0.426119178533554077
-0.197759255766868591 -0.0751380845904350281 -0.3358803391456604
0.280613332986831665 -0.151497945189476013 -0.344215482473373413
-0.353776395320892334 0.123815819621086121 -0.30737653374671936
-0.338621735572814941 -0.051719270646572113 -0.376369565725326538
0.0675546452403068542 -0.140948683023452759 -0.425290018320083618
-0.376272827386856079 0.101661793887615204 -0.31778290867805481
0.378585159778594971 -0.11894100159406662 -0.223836496472358704
-0.335170626640319824 0.0596596300601959229 -0.397329509258270264
0.0800908133387565613 -0.139844641089439392 -0.448064863681793213
0.451790392398834229 -0.0608649440109729767 -0.112571552395820618
-0.0706108808517456055 -0.135073229670524597 -0.433474034070968628
0.0646110326051712036 -0.143487557768821716 -0.41925773024559021
-0.338642984628677368 -0.0798678100109100342 -0.394983798265457153
0.334456980228424072 -0.142573043704032898 -0.266904979944229126
0.390457361936569214 -0.0886061713099479675 -0.162469521164894104
-0.188980028033256531 -0.103706397116184235 -0.413223803043365479
-0.380643248558044434 0.0934802591800689697 -0.388967782258987427
-0.173858553171157837 -0.113012947142124176 -0.428731143474578857
-0.226867541670799255 -0.120560303330421448 -0.416660696268081665
0.310735583305358887 -0.17281949520111084 -0.340758323669433594
0.477354288101196289 0.0227996781468391418 -0.104470796883106232
0.34066501259803772 -0.127804756164550781 -0.321648657321929932
0.236679494380950928 -0.147589713335037231 -0.306948423385620117
-0.338775575160980225 0.0812625959515571594 -0.392059534788131714
0.281451880931854248 -0.172472819685935974 -0.298160642385482788
-0.372767031192779541 0.0293193906545639038 -0.390127182006835938
-0.308826565742492676 -0.0369565486907958984 -0.387633770704269409
-0.39264380931854248 0.0679062455892562866 -0.400651156902313232
0.374084174633026123 -0.0864165797829627991 -0.19949871301651001
0.452618598937988281 -0.133530080318450928 -0.181779980659484863
-0.34987369179725647 0.0632272586226463318 -0.397337198257446289
-0.159728020429611206 -0.126628130674362183 -0.432316601276397705
0.482047617435455322 -0.0410505644977092743 -0.105471938848495483
0.392351061105728149 -0.110294632613658905 -0.190309062600135803
0.475172519683837891 -0.0269320718944072723 -0.118986725807189941
0.00620597228407859802 -0.125939011573791504 -0.402672708034515381
-0.16168619692325592 -0.10126861184835434 -0.423063933849334717
0.182271480560302734 -0.187323495745658875 -0.423224300146102905
-0.349408656358718872 0.105422914028167725 -0.324671447277069092
0.290910571813583374 -0.145308911800384521 -0.262799650430679321
0.381045222282409668 -0.0956587493419647217 -0.255155950784683228
0.358447283506393433 -0.156757548451423645 -0.227745041251182556
0.420678406953811646 -0.0157245993614196777 -0.0914560183882713318
0.366828829050064087 -0.10169675201177597 -0.226784944534301758
-0.154568731784820557 -0.145783841609954834 -0.392163485288619995
0.447908341884613037 0.0199161935597658157 -0.0931055024266242981
-0.315795630216598511 -0.0217374823987483978 -0.404798716306686401
0.413535803556442261 -0.133140072226524353 -0.269611507654190063
-0.372315019369125366 0.0914295986294746399 -0.361258834600448608
0.44167134165763855 -0.0845942646265029907 -0.11513904482126236
0.354847937822341919 -0.13105359673500061 -0.292882710695266724
0.481736451387405396 0.000993265071883797646 -0.0950330644845962524
-0.213312819600105286 -0.112693376839160919 -0.437616646289825439
0.133586063981056213 -0.166068792343139648 -0.396032810211181641
-0.0797291025519371033 -0.156704843044281006 -0.417641729116439819
0.439770728349685669 -0.081040993332862854 -0.125220701098442078
-0.36161234974861145 -0.0913365334272384644 -0.391927748918533325
0.351179420948028564 -0.132055386900901794 -0.250596046447753906
0.216746628284454346 -0.138952121138572693 -0.415164470672607422
-0.34847557544708252 -0.00989296287298202515 -0.415641069412231445
-0.324012219905853271 0.0134953921660780907 -0.382606476545333862
0.00742099946364760399 -0.14053739607334137 -0.430114090442657471
0.340957522392272949 -0.154539123177528381 -0.3007984459400177
0.445123791694641113 -0.0874421447515487671 -0.162666082382202148
-0.0235393159091472626 -0.137771010398864746 -0.416474282741546631
0.141245052218437195 -0.155618071556091309 -0.425398707389831543
-0.336142897605895996 -0.024798886850476265 -0.41077655553817749
0.400101035833358765 -0.0787868723273277283 -0.184633418917655945
-0.371083319187164307 0.112418264150619507 -0.364739716053009033
-0.352268338203430176 -0.0304810535162687302 -0.403119176626205444
-0.355176001787185669 0.0289357416331768036 -0.395528346300125122
0.39655303955078125 -0.100282147526741028 -0.186857029795646667
-0.423773735761642456 0.00476209027692675591 -0.406230568885803223
0.472524285316467285 -0.0588315092027187347 -0.0744262561202049255
-0.0144937774166464806 -0.110306426882743835 -0.433055639266967773
0.0522070340812206268 -0.131682261824607849 -0.440017670392990112
0.502115905284881592 -0.0852155983448028564 -0.0916253179311752319
0.0119289280846714973 -0.114087089896202087 -0.430048257112503052
-0.275427818298339844 -0.0723743364214897156 -0.424571573734283447
-0.17489922046661377 -0.0789043456315994263 -0.387045949697494507
0.158196404576301575 -0.13707105815410614 -0.431212961673736572
-0.0227692704647779465 -0.0947946831583976746 -0.442907810211181641
-0.41852995753288269 0.0365682914853096008 -0.412628144025802612
-0.37605518102645874 0.0013211170444265008 -0.3713797926902771
-0.416608959436416626 0.105470597743988037 -0.327763915061950684
0.13919655978679657 -0.11452251672744751 -0.443804532289505005
0.421794295310974121 -0.0799957588315010071 -0.146611452102661133
-0.372455596923828125 0.0215999279171228409 -0.393212765455245972
0.355963468551635742 -0.118184216320514679 -0.287817239761352539
-0.352190732955932617 -0.00989053491503000259 -0.386951833963394165
0.33331027626991272 -0.131365776062011719 -0.265024274587631226
0.406631439924240112 -0.0760057568550109863 -0.169941753149032593
0.315728694200515747 -0.147343456745147705 -0.360694199800491333
0.407191485166549683 -0.178523153066635132 -0.34937170147895813
0.475793391466140747 -0.0185194611549377441 -0.100122168660163879
0.333756506443023682 -0.124977044761180878 -0.232029512524604797
0.320730328559875488 -0.130652084946632385 -0.275223463773727417
0.467029064893722534 0.0130537822842597961 -0.117110408842563629
0.0618745945394039154 -0.153124421834945679 -0.388311684131622314
0.404174476861953735 -0.148367196321487427 -0.216297388076782227
0.359431922435760498 -0.107875153422355652 -0.318767905235290527
0.476778775453567505 -0.0431192852556705475 -0.0772306174039840698
-0.3758259117603302 0.117990769445896149 -0.292554676532745361
-0.190365463495254517 -0.0736321136355400085 -0.399817407131195068
0.443286359310150146 -0.052930489182472229 -0.150893554091453552
0.149064153432846069 -0.136482447385787964 -0.38010290265083313
-0.238453403115272522 -0.11149480938911438 -0.400809943675994873
-0.377581298351287842 0.119892090559005737 -0.353376567363739014
-0.0259792245924472809 -0.127707317471504211 -0.455292761325836182
0.437127918004989624 -0.0552363023161888123 -0.18124014139175415
0.0982234105467796326 -0.167339056730270386 -0.412902295589447021
0.216092333197593689 -0.161799192428588867 -0.374113380908966064
0.295114964246749878 -0.131666183471679688 -0.340685814619064331
-0.127462044358253479 -0.128808379173278809 -0.423466622829437256
0.343168824911117554 -0.145048066973686218 -0.295489400625228882
0.428254276514053345 -0.0155784068629145622 -0.0957571417093276978
0.45346030592918396 -0.114460617303848267 -0.167731136083602905
0.249353542923927307 -0.170656278729438782 -0.399267643690109253
0.306397110223770142 -0.165633559226989746 -0.340679407119750977
0.218778684735298157 -0.153767004609107971 -0.374514788389205933
-0.385227471590042114 0.0297828409820795059 -0.384875386953353882
0.0579960830509662628 -0.168166190385818481 -0.437452584505081177
0.45241856575012207 -0.0230223853141069412 -0.102235525846481323
0.455472171306610107 -0.0610640756785869598 -0.0650053247809410095
0.307694166898727417 -0.160554468631744385 -0.316512435674667358
0.357318907976150513 -0.158689677715301514 -0.242024734616279602
0.339859426021575928 -0.120562419295310974 -0.29566541314125061
0.428400814533233643 -0.118243090808391571 -0.149490386247634888
-0.345543235540390015 0.0431737415492534637 -0.402237772941589355
-0.358113020658493042 0.0326152220368385315 -0.433814018964767456
0.402653038501739502 -0.185476332902908325 -0.303089320659637451
0.444150596857070923 -0.0996628478169441223 -0.165672659873962402
0.432194828987121582 -0.0978676304221153259 -0.135973796248435974
0.41890290379524231 -0.00583493802696466446 -0.107313424348831177
-0.392518222332000732 0.0316915363073348999 -0.412640511989593506
-0.253596603870391846 -0.0915165245532989502 -0.389733284711837769
-0.368731886148452759 0.0474267192184925079 -0.382395744323730469
-0.218833833932876587 -0.0967861488461494446 -0.40717846155166626
0.337135016918182373 -0.131503462791442871 -0.340135067701339722
0.418145835399627686 -0.0454086363315582275 -0.0863172039389610291
-0.331374108791351318 0.0901620611548423767 -0.393964678049087524
0.320928722620010376 -0.117268048226833344 -0.278467327356338501
0.333385318517684937 -0.127475425601005554 -0.19517555832862854
-0.354218661785125732 0.108682386577129364 -0.333371967077255249
0.362179607152938843 -0.138610467314720154 -0.290619164705276489
-0.327239394187927246 -0.0606985315680503845 -0.39653170108795166
0.38562348484992981 -0.0405853502452373505 -0.0904672443866729736
0.367998600006103516 -0.13809669017791748 -0.280701220035552979
0.436538994312286377 -0.0608627758920192719 -0.0673457682132720947
-0.381177812814712524 0.0331235118210315704 -0.393748730421066284
-0.298192262649536133 -0.106841713190078735 -0.398721754550933838
-0.198186799883842468 -0.0911056175827980042 -0.430359363555908203
0.145925432443618774 -0.173458293080329895 -0.397839605808258057
-0.421486109495162964 0.0859362706542015076 -0.404736697673797607
-0.373626112937927246 0.0972767248749732971 -0.342726469039916992
0.430360913276672363 -0.104409672319889069 -0.113891765475273132
-0.0840354561805725098 -0.10920560359954834 -0.400899261236190796
0.294712871313095093 -0.120154730975627899 -0.351449102163314819
-0.0889481082558631897 -0.14196111261844635 -0.392434060573577881
-0.0614009536802768707 -0.139037027955055237 -0.405631422996520996
0.438866615295410156 -0.146189883351325989 -0.200697273015975952
-0.134733870625495911 -0.10956970602273941 -0.404726654291152954
0.21702110767364502 -0.141407743096351624 -0.377055436372756958
0.403366714715957642 -0.130201399326324463 -0.24491448700428009
-0.138365790247917175 -0.0860556215047836304 -0.409023016691207886
0.142425104975700378 -0.156146034598350525 -0.362290710210800171
-0.359495788812637329 0.0957773998379707336 -0.318593770265579224
-0.368694454431533813 0.00968583114445209503 -0.387565195560455322
0.0736984163522720337 -0.168837249279022217 -0.413725048303604126
0.0363033264875411987 -0.144041940569877625 -0.437388867139816284
0.136521071195602417 -0.15483519434928894 -0.398900657892227173
0.386499732732772827 -0.111082747578620911 -0.251417309045791626
0.117179721593856812 -0.164663910865783691 -0.374391794204711914
0.389928221702575684 -0.134322553873062134 -0.193880289793014526
-0.137209668755531311 -0.121669881045818329 -0.401575982570648193
0.45367082953453064 -0.0990928784012794495 -0.0992685630917549133
0.489200621843338013 -0.106624558568000793 -0.125201374292373657
-0.327867597341537476 -0.0691729411482810974 -0.387354880571365356
0.298031836748123169 -0.147045806050300598 -0.372728973627090454
0.391688257455825806 -0.0660209059715270996 -0.268122762441635132
0.0932895615696907043 -0.167359665036201477 -0.410751044750213623
0.314488738775253296 -0.109049730002880096 -0.277027875185012817
-0.370889484882354736 0.0123104574158787727 -0.388077795505523682
0.149224400520324707 -0.174599379301071167 -0.400765389204025269
0.450060784816741943 -0.0554360933601856232 -0.0991758629679679871
-0.0685585290193557739 -0.0984157845377922058 -0.411656051874160767
0.436316996812820435 -0.0641357004642486572 -0.0996115654706954956
0.474156439304351807 -0.11025024950504303 -0.176112085580825806
-0.31851235032081604 -0.0779827013611793518 -0.365382492542266846
0.392667084932327271 -0.196470156311988831 -0.235733196139335632
0.0885665342211723328 -0.123168677091598511 -0.447984188795089722
-0.354463636875152588 0.0725862309336662292 -0.337072283029556274
-0.320536375045776367 -0.0852550342679023743 -0.404351264238357544
-0.332476556301116943 -0.071492902934551239 -0.40140998363494873
0.0797920301556587219 -0.142374053597450256 -0.429510056972503662
-0.25229153037071228 -0.0765858665108680725 -0.400727212429046631
0.42431640625 -0.0125198336318135262 -0.0893624648451805115
0.0891601145267486572 -0.145642593502998352 -0.412299931049346924
-0.354534894227981567 -0.0247132498770952225 -0.385168015956878662
0.404498964548110962 -0.0916555076837539673 -0.193102046847343445
0.481627374887466431 0.00616756081581115723 -0.125640571117401123
0.0428597219288349152 -0.140543028712272644 -0.416914254426956177
0.353855282068252563 -0.134405389428138733 -0.252557754516601562
0.183700457215309143 -0.17459474503993988 -0.351857125759124756
-0.189707010984420776 -0.119313471019268036 -0.405998706817626953
-0.179581150412559509 -0.0723655968904495239 -0.431805729866027832
0.377795934677124023 -0.106295950710773468 -0.262128323316574097
0.443531602621078491 -0.0121886748820543289 -0.0741132870316505432
0.457793951034545898 -0.0362768471240997314 -0.107595980167388916
0.236238658428192139 -0.135892614722251892 -0.387460678815841675
0.38782230019569397 -0.163550764322280884 -0.238171562552452087
0.41118091344833374 -0.119689367711544037 -0.191475182771682739
0.447471439838409424 -0.0163001231849193573 -0.119423434138298035
-0.270426541566848755 -0.0882268399000167847 -0.371892601251602173
-0.0789212659001350403 -0.117937557399272919 -0.442613929510116577
-0.37265700101852417 0.118063628673553467 -0.34227907657623291
0.356893777847290039 -0.129358500242233276 -0.290593624114990234
-0.372098922729492188 0.0808985605835914612 -0.356285929679870605
-0.157701984047889709 -0.131979241967201233 -0.407686918973922729
0.240635514259338379 -0.16107100248336792 -0.371532529592514038
-0.367518007755279541 0.0343777425587177277 -0.393671423196792603
-0.4279441237449646 0.0602137297391891479 -0.392592400312423706
-0.368322193622589111 0.148538574576377869 -0.311235278844833374
0.367956250905990601 -0.123665779829025269 -0.270958125591278076
-0.166679739952087402 -0.120132714509963989 -0.385291486978530884
-0.388433188199996948 0.0830600038170814514 -0.373244315385818481
0.382322877645492554 -0.0864974707365036011 -0.205203443765640259
0.348628044128417969 -0.11770252138376236 -0.27226102352142334
0.0212800577282905579 -0.14372330904006958 -0.42171168327331543
-0.413700014352798462 0.0761782974004745483 -0.384303927421569824
-0.316599279642105103 -0.0725166350603103638 -0.39484444260597229
0.437628209590911865 -0.0789794698357582092 -0.143128767609596252
-0.216962352395057678 -0.0415045209228992462 -0.422917783260345459
-0.369937658309936523 0.0401102751493453979 -0.3933124840259552
0.137642174959182739 -0.168265774846076965 -0.387665241956710815
-0.0669978633522987366 -0.122383475303649902 -0.383967816829681396
0.462191462516784668 -0.0716341361403465271 -0.152368798851966858
0.355239510536193848 -0.0980203151702880859 -0.242048278450965881
0.414302617311477661 -0.0883887484669685364 -0.12584194540977478
-0.261561572551727295 -0.0956108495593070984 -0.455338120460510254
-0.12102171778678894 -0.107386395335197449 -0.439886689186096191
-0.199484243988990784 -0.108528248965740204 -0.419033408164978027
-0.168650850653648376 -0.157062932848930359 -0.410794109106063843
-0.089077584445476532 -0.0914815589785575867 -0.421825528144836426
-0.226881459355354309 -0.0805142521858215332 -0.444358974695205688
0.429376512765884399 -0.0959228724241256714 -0.170728102326393127
-0.0352833494544029236 -0.116408981382846832 -0.409638524055480957
-0.403324306011199951 0.0166399460285902023 -0.407268047332763672
-0.33903852105140686 0.0993160456418991089 -0.363472968339920044
0.375705331563949585 -0.171048089861869812 -0.219680190086364746
-0.146153658628463745 -0.0924208983778953552 -0.381781458854675293
-0.332940220832824707 -0.0445931516587734222 -0.365911096334457397
0.345815002918243408 -0.169939383864402771 -0.355913817882537842
0.180434763431549072 -0.207843467593193054 -0.413610756397247314
0.510777533054351807 -0.0828901529312133789 -0.108922436833381653
0.485571861267089844 -0.0340223498642444611 -0.106286726891994476
-0.424158304929733276 0.053846556693315506 -0.39256015419960022
-0.373565167188644409 0.0506134144961833954 -0.371236026287078857
0.140750467777252197 -0.148981869220733643 -0.42689436674118042
-0.365379929542541504 0.111821651458740234 -0.373724430799484253
-0.349680572748184204 -0.0688104778528213501 -0.385916858911514282
0.324634790420532227 -0.133619487285614014 -0.331242948770523071
0.35649186372756958 -0.125774368643760681 -0.214290142059326172
0.393050312995910645 -0.124946482479572296 -0.173283696174621582
-0.272664815187454224 -0.0988734066486358643 -0.414384603500366211
0.333391249179840088 -0.118320561945438385 -0.290432155132293701
0.439439654350280762 -0.0717484503984451294 -0.180776357650756836
-0.0712410137057304382 -0.124142244458198547 -0.40493437647819519
-0.322660982608795166 -0.0291635151952505112 -0.405386298894882202
0.438596636056900024 -0.0741653293371200562 -0.151588261127471924
0.0515533015131950378 -0.145477339625358582 -0.419687896966934204
0.360108435153961182 -0.109379485249519348 -0.261817902326583862
-0.00537799391895532608 -0.136094287037849426 -0.408429980278015137
0.176029160618782043 -0.188102111220359802 -0.405372202396392822
-0.379874467849731445 0.0290369279682636261 -0.356210082769393921
0.255907237529754639 -0.197174832224845886 -0.329838752746582031
0.446240335702896118 -0.0570811852812767029 -0.156818434596061707
-0.268133670091629028 -0.113558366894721985 -0.413344204425811768
-0.396146237850189209 0.138810619711875916 -0.339144766330718994
-0.369014322757720947 0.136289462447166443 -0.274329662322998047
-0.197146907448768616 -0.0850190520286560059 -0.456125795841217041
0.443640470504760742 -0.125971972942352295 -0.153331443667411804
0.472074776887893677 -0.0772986039519309998 -0.0886021256446838379
0.0679692625999450684 -0.137526825070381165 -0.420809358358383179
0.302598118782043457 -0.0806032419204711914 -0.323590904474258423
0.431127846240997314 0.00400571106001734734 -0.11167493462562561
0.269169002771377563 -0.159318745136260986 -0.363674432039260864
0.165900155901908875 -0.169788762927055359 -0.429907441139221191
0.0904832556843757629 -0.168478533625602722 -0.415022671222686768
0.405754774808883667 -0.0761788859963417053 -0.233945935964584351
-0.0154162542894482613 -0.147092506289482117 -0.433807313442230225
0.334659457206726074 -0.14047473669052124 -0.304692625999450684
-0.227647751569747925 -0.0872488543391227722 -0.412760078907012939
-0.147394344210624695 -0.123578734695911407 -0.430631011724472046
0.417474716901779175 -0.0774029642343521118 -0.130810737609863281
-0.0831033438444137573 -0.0814891308546066284 -0.437361389398574829
0.386087656021118164 -0.0628329068422317505 -0.241373583674430847
-0.357521295547485352 -0.00691918609663844109 -0.377984434366226196
0.335927277803421021 -0.130518421530723572 -0.271318793296813965
0.319285392761230469 -0.176375791430473328 -0.331406056880950928
0.448146820068359375 -0.0166454426944255829 -0.0620679892599582672
0.151074826717376709 -0.181375011801719666 -0.428220540285110474
0.0761341676115989685 -0.167497336864471436 -0.40230908989906311
0.378921210765838623 -0.13944794237613678 -0.257129848003387451
0.160540133714675903 -0.143559351563453674 -0.422497749328613281
0.145312920212745667 -0.16344134509563446 -0.416254162788391113
-0.033670276403427124 -0.102312840521335602 -0.415212512016296387
-0.372955799102783203 0.0688187181949615479 -0.380457967519760132
0.166675686836242676 -0.183119326829910278 -0.40366441011428833
0.394003093242645264 -0.0958582982420921326 -0.175474062561988831
-0.339034050703048706 -0.0454183630645275116 -0.399171024560928345
0.258545875549316406 -0.124276764690876007 -0.376183032989501953
-0.375012218952178955 0.0480873733758926392 -0.390153735876083374
0.4289722740650177 -0.0756875723600387573 -0.166210070252418518
0.128389060497283936 -0.160749822854995728 -0.43073880672454834
0.384131550788879395 -0.0766843408346176147 -0.195255771279335022
0.423271030187606812 -0.122412234544754028 -0.148781269788742065
-0.00812821369618177414 -0.11075524240732193 -0.433781296014785767
-0.0763941258192062378 -0.118002906441688538 -0.438824683427810669
0.394981235265731812 -0.153932854533195496 -0.237201973795890808
0.479563236236572266 -0.0709492787718772888 -0.101660855114459991
-0.0339786969125270844 -0.146854028105735779 -0.429166287183761597
-0.379907757043838501 0.0743776261806488037 -0.368615001440048218
-0.377364605665206909 0.126407429575920105 -0.30329596996307373
0.480474174022674561 -0.0194076001644134521 -0.113992802798748016
0.38436773419380188 -0.0787909924983978271 -0.266182601451873779
0.460457593202590942 -0.11879296600818634 -0.115173123776912689
-0.384968966245651245 0.0442072935402393341 -0.427671998739242554
-0.0610297955572605133 -0.117407761514186859 -0.41735529899597168
-0.180580690503120422 -0.0605665780603885651 -0.453876465559005737
0.367219865322113037 -0.138419553637504578 -0.293659836053848267
-0.350322216749191284 -0.0673933997750282288 -0.412960827350616455
-0.171844005584716797 -0.146774128079414368 -0.403854191303253174
-0.167416572570800781 -0.0931511968374252319 -0.424839764833450317
0.279879719018936157 -0.168302223086357117 -0.351149439811706543
0.420921027660369873 -0.0787633508443832397 -0.176602587103843689
-0.0201965365558862686 -0.145637467503547668 -0.415736585855484009
-0.349496603012084961 0.117324039340019226 -0.354270458221435547
0.436648756265640259 -0.0920620858669281006 -0.161466121673583984
0.226382583379745483 -0.1708575040102005 -0.41674533486366272
0.097452893853187561 -0.161848351359367371 -0.404214054346084595
-0.139885500073432922 -0.0986312627792358398 -0.415584474802017212
-0.333970904350280762 -0.0379111543297767639 -0.406628280878067017
0.128683686256408691 -0.175201565027236938 -0.413892090320587158
0.401171326637268066 -0.104606345295906067 -0.222861424088478088
0.364481061697006226 -0.14015941321849823 -0.248262524604797363
-0.351947158575057983 -0.0407852381467819214 -0.403410792350769043
0.0988532900810241699 -0.124365009367465973 -0.435622483491897583
0.349313467741012573 -0.132382631301879883 -0.303129315376281738
-0.0665806010365486145 -0.100279100239276886 -0.428892850875854492
0.362509310245513916 -0.116626240313053131 -0.237639158964157104
-0.351833462715148926 -0.0621651224792003632 -0.367168188095092773
-0.342306792736053467 -0.0401905104517936707 -0.388597637414932251
0.383957415819168091 -0.172340765595436096 -0.306552708148956299
0.330340445041656494 -0.145657852292060852 -0.327971309423446655
0.420181721448898315 -0.0713080242276191711 -0.189045712351799011
-0.362145483493804932 0.0718021020293235779 -0.351059019565582275
0.244789659976959229 -0.179279327392578125 -0.346682995557785034
0.116673104465007782 -0.169885188341140747 -0.412230730056762695
-0.361198514699935913 0.0414170734584331512 -0.384581565856933594
-0.00748140597715973854 -0.12636236846446991 -0.40961185097694397
0.258158743381500244 -0.154732853174209595 -0.40425407886505127
-0.29178890585899353 -0.0764272883534431458 -0.402552694082260132
-0.280033886432647705 -0.087562263011932373 -0.411949843168258667
-0.362076878547668457 0.0781557634472846985 -0.369382739067077637
-0.309337794780731201 -0.0150039764121174812 -0.385184705257415771
-0.355884671211242676 0.157849937677383423 -0.318466365337371826
0.372320443391799927 -0.164100691676139832 -0.237909942865371704
0.199302762746810913 -0.167203649878501892 -0.387520343065261841
0.464686214923858643 -0.00985348504036664963 -0.0974927321076393127
0.0636116266250610352 -0.183291241526603699 -0.417375504970550537
0.347864091396331787 -0.166773766279220581 -0.322906792163848877
0.312422960996627808 -0.116264581680297852 -0.296398252248764038
0.346236854791641235 -0.17954602837562561 -0.320188343524932861
0.452355086803436279 -0.0170212890952825546 -0.0613483302295207977
-0.294121265411376953 -0.104742534458637238 -0.406109362840652466
0.150347724556922913 -0.166675597429275513 -0.43030431866645813
0.373543083667755127 -0.133175268769264221 -0.297389298677444458
-0.379715114831924438 0.136988416314125061 -0.296290844678878784
0.396655827760696411 -0.0286108683794736862 -0.122059114277362823
-0.34307822585105896 0.122479714453220367 -0.336112529039382935
0.123473584651947021 -0.165631577372550964 -0.386010468006134033
-0.196750745177268982 -0.0706363767385482788 -0.449470281600952148
0.13933253288269043 -0.137487754225730896 -0.410506486892700195
-0.168518230319023132 -0.106969676911830902 -0.441783428192138672
0.48856663703918457 -0.067409031093120575 -0.109973110258579254
0.479882806539535522 -0.0260311029851436615 -0.0635490119457244873
0.0816205292940139771 -0.124198123812675476 -0.408541560173034668
-0.383989870548248291 0.132395163178443909 -0.348389923572540283
0.148377075791358948 -0.141714975237846375 -0.371752768754959106
0.272672116756439209 -0.13631749153137207 -0.333289176225662231
0.0870456919074058533 -0.12910345196723938 -0.417740941047668457
0.379603713750839233 -0.124042876064777374 -0.192060500383377075
0.321106582880020142 -0.126519635319709778 -0.30719032883644104
-0.289082229137420654 -0.0543963536620140076 -0.396430373191833496
-0.213551372289657593 -0.0827789604663848877 -0.419169127941131592
0.448314964771270752 -0.00400777067989110947 -0.120364643633365631
-0.341859757900238037 0.0885955765843391418 -0.380818635225296021
0.0159121882170438766 -0.114448525011539459 -0.408402204513549805
-0.369835466146469116 -0.0446598082780838013 -0.406477034091949463
0.069380931556224823 -0.165278926491737366 -0.410051316022872925
0.0437634699046611786 -0.162961319088935852 -0.406503140926361084
-0.185274362564086914 -0.101385131478309631 -0.451490074396133423
-0.365883141756057739 0.00709667988121509552 -0.376583665609359741
0.324722886085510254 -0.175284579396247864 -0.330652952194213867
-0.0566991344094276428 -0.15321052074432373 -0.44578397274017334
-0.403315424919128418 0.0675691664218902588 -0.3863791823387146
0.122602418065071106 -0.138865768909454346 -0.420349180698394775
0.479339122772216797 -0.0208947602659463882 -0.0780541524291038513
-0.0808595120906829834 -0.114051192998886108 -0.427540063858032227
-0.302486836910247803 -0.0741484016180038452 -0.385058581829071045
0.261291027069091797 -0.157126560807228088 -0.412560790777206421
-0.424487650394439697 0.0685800015926361084 -0.404527872800827026
-0.226420775055885315 -0.125824391841888428 -0.439796864986419678
0.477901726961135864 -0.0413279309868812561 -0.104663841426372528
0.374667614698410034 -0.0687680840492248535 -0.271890997886657715
-0.142758890986442566 -0.0706310942769050598 -0.418212413787841797
0.380316942930221558 -0.139250427484512329 -0.193292990326881409
0.389329731464385986 -0.152909725904464722 -0.257559835910797119
0.389534443616867065 -0.125171691179275513 -0.214801028370857239
0.302924275398254395 -0.162277638912200928 -0.341949135065078735
-0.360634267330169678 0.0768799111247062683 -0.386743277311325073
0.3597869873046875 -0.177598580718040466 -0.287289321422576904
0.0760786160826683044 -0.105556219816207886 -0.417531877756118774
-0.0196435190737247467 -0.112312011420726776 -0.419803708791732788
0.432410925626754761 -0.171969771385192871 -0.216719314455986023
-0.330822616815567017 -0.0619140826165676117 -0.393370926380157471
0.447119235992431641 -0.0650853067636489868 -0.0963527411222457886
-0.0532014258205890656 -0.147939026355743408 -0.408085286617279053
-0.193207919597625732 -0.100939385592937469 -0.424031227827072144
0.283272594213485718 -0.158023089170455933 -0.378706425428390503
-0.3370036780834198 0.013260476291179657 -0.387747406959533691
0.416862219572067261 -0.0557792671024799347 -0.0909889265894889832
0.265440523624420166 -0.204001650214195251 -0.345463007688522339
0.366862863302230835 -0.0642846673727035522 -0.218054354190826416
0.441422611474990845 -0.123406499624252319 -0.153303161263465881
0.488611996173858643 -0.0845497399568557739 -0.187472701072692871
0.157127156853675842 -0.139055952429771423 -0.402230829000473022
0.395491063594818115 -0.110529161989688873 -0.24091571569442749
-0.351307094097137451 0.0089237382635474205 -0.392821818590164185
-0.367605537176132202 -0.0540046617388725281 -0.379626482725143433
0.40336957573890686 -0.0426529459655284882 -0.116924725472927094
0.381523996591567993 -0.111312568187713623 -0.197414278984069824
0.466341942548751831 -0.0108317164704203606 -0.0705987811088562012
0.353616416454315186 -0.140198975801467896 -0.269544273614883423
0.200805038213729858 -0.155884206295013428 -0.436244994401931763
0.217236429452896118 -0.145218417048454285 -0.380433410406112671
