ply
format ascii 1.0
element vertex 752
comment vertices
property float x
property float y
property float z
end_header
0.506423473358154297 0.249013736844062805 0.291504889726638794
0.687870383262634277 -0.110179424285888672 0.373740017414093018
0.743350982666015625 0.10888083279132843 0.142780199646949768
0.376804620027542114 -0.451363474130630493 0.397302567958831787
0.345538198947906494 0.271680146455764771 0.492871314287185669
0.742580652236938477 0.0121580325067043304 0.258567571640014648
0.6284446120262146 0.168809369206428528 0.193955451250076294
0.664873301982879639 -0.231087625026702881 0.34631270170211792
0.167327985167503357 0.1432475745677948 0.554208338260650635
0.664086222648620605 0.136893510818481445 0.189782485365867615
0.669703066349029541 0.210072144865989685 0.285845845937728882
0.710818052291870117 -0.145192041993141174 0.355354160070419312
0.756922543048858643 -0.137548506259918213 0.292134523391723633
0.600519716739654541 0.18149198591709137 0.235849708318710327
0.750997185707092285 0.0677573755383491516 0.175503894686698914
0.802373349666595459 -0.0319229662418365479 0.25946924090385437
0.659053206443786621 0.126317128539085388 0.246173202991485596
0.79533088207244873 -0.0510190799832344055 0.250771880149841309
0.817092299461364746 0.040978897362947464 0.111445225775241852
0.481211870908737183 0.268786102533340454 0.301912665367126465
0.592088818550109863 0.21999223530292511 0.248115509748458862
0.811357617378234863 0.115120768547058105 0.140464648604393005
0.763603508472442627 -8.45726535771973431e-05 0.0343821160495281219
0.73970109224319458 0.0263690054416656494 0.190410524606704712
0.746565520763397217 0.0370790138840675354 0.125995337963104248
0.813812494277954102 0.035039316862821579 0.112155772745609283
0.665777683258056641 0.157627195119857788 0.196772471070289612
0.544424831867218018 0.22564290463924408 0.276297986507415771
0.760406494140625 0.0387504324316978455 0.17061421275138855
0.589525043964385986 -0.274332284927368164 0.323050618171691895
0.137497439980506897 0.103230796754360199 0.563476204872131348
0.73701930046081543 -0.195173949003219604 0.330116152763366699
0.747545540332794189 0.0242719966918230057 0.300748378038406372
0.759321868419647217 -0.0981838256120681763 0.260323613882064819
0.516730844974517822 0.262515813112258911 0.302067995071411133
0.820496737957000732 0.0858465805649757385 0.0950346440076828003
0.583836197853088379 -0.325759083032608032 0.425680845975875854
0.809106290340423584 0.102882020175457001 0.146311774849891663
0.680272161960601807 -0.0112713342532515526 0.21583065390586853
0.498480796813964844 -0.355951309204101562 0.398035228252410889
0.714875280857086182 -0.089108005166053772 0.262027233839035034
0.686833560466766357 -0.172845885157585144 0.312583208084106445
0.702390074729919434 -0.126921609044075012 0.258193641901016235
0.430330783128738403 -0.433415085077285767 0.393608659505844116
0.663133859634399414 0.105677254498004913 0.168338164687156677
0.732947289943695068 0.0269914586097002029 0.184770196676254272
0.700450003147125244 -0.192576795816421509 0.305146843194961548
0.705971956253051758 -0.213788211345672607 0.320836693048477173
0.355496913194656372 0.340476661920547485 0.320803314447402954
0.43924403190612793 -0.426781386137008667 0.347699552774429321
0.526764988899230957 -0.355580747127532959 0.374406993389129639
0.177384674549102783 -0.556746065616607666 0.387260079383850098
-0.109796673059463501 -0.585119545459747314 0.360094994306564331
0.574205636978149414 -0.306898534297943115 0.38790661096572876
0.807036936283111572 0.0697010830044746399 0.111297920346260071
0.747308731079101562 -0.00445513799786567688 0.291652828454971313
-0.162168726325035095 -0.57759702205657959 0.362411558628082275
0.690141677856445312 -0.12768140435218811 0.326017528772354126
0.762627542018890381 0.0201389584690332413 0.212599948048591614
0.300685137510299683 0.236741811037063599 0.456041246652603149
0.835265576839447021 0.042039189487695694 0.0492575280368328094
0.836676955223083496 0.0244608446955680847 0.153096854686737061
0.693259060382843018 0.00719162356108427048 0.390263795852661133
0.741579771041870117 0.00405070465058088303 0.203311771154403687
0.723696529865264893 0.0104639027267694473 0.323626875877380371
0.637435972690582275 0.19408552348613739 0.23138880729675293
0.00227872515097260475 0.0350888408720493317 0.631968140602111816
-0.135481998324394226 -0.583649873733520508 0.360130250453948975
0.769226908683776855 -0.064751848578453064 0.2708016037940979
0.0468780919909477234 0.038089405745267868 0.609172999858856201
0.665944814682006836 0.193723618984222412 0.194747582077980042
0.735686182975769043 0.0768662542104721069 0.175117805600166321
0.480249524116516113 -0.360831111669540405 0.39606010913848877
0.692953109741210938 -0.178605824708938599 0.282403677701950073
-0.168546319007873535 -0.560983061790466309 0.412099897861480713
0.731601178646087646 -0.0634319782257080078 0.216086745262145996
0.791708528995513916 -0.0395769737660884857 0.210485354065895081
0.588052153587341309 0.177760884165763855 0.22928290069103241
0.669571876525878906 -0.21485687792301178 0.31673198938369751
0.8187522292137146 0.0567897669970989227 0.159631475806236267
0.560296833515167236 0.226314172148704529 0.30757787823677063
0.408069103956222534 0.294769585132598877 0.329460084438323975
0.333191394805908203 0.259643793106079102 0.480875283479690552
0.736812412738800049 -0.100130781531333923 0.318082422018051147
0.759559810161590576 -0.0954625830054283142 0.276694804430007935
0.37839972972869873 0.304613322019577026 0.326612234115600586
0.726235270500183105 -0.0379162505269050598 0.26940453052520752
0.21189214289188385 0.215214729309082031 0.508619964122772217
0.791382968425750732 0.000129561158246360719 0.207167744636535645
0.517947852611541748 0.279529988765716553 0.292612761259078979
0.593369424343109131 -0.0750609338283538818 0.202104881405830383
0.623760044574737549 0.135908722877502441 0.166123628616333008
0.824306309223175049 -0.00855705887079238892 0.144751623272895813
0.741045117378234863 -0.00599219696596264839 0.348143160343170166
0.692443311214447021 0.0280948225408792496 0.236736461520195007
0.292606979608535767 -0.504227221012115479 0.403281629085540771
0.782658994197845459 0.04090910404920578 0.192424014210700989
0.179358884692192078 -0.545168220996856689 0.379090338945388794
0.766596496105194092 0.0633355528116226196 0.16786976158618927
0.708379864692687988 0.141173273324966431 0.179937124252319336
0.603473007678985596 -0.333033531904220581 0.382218688726425171
0.0980012118816375732 0.0904019176959991455 0.5967215895652771
0.758175671100616455 -0.0762717202305793762 0.244472771883010864
0.644529879093170166 -0.254175841808319092 0.294873833656311035
0.651080429553985596 -0.286276578903198242 0.370507121086120605
0.666950762271881104 0.20210672914981842 0.228292688727378845
0.663022696971893311 -0.183240830898284912 0.312753409147262573
0.591839015483856201 0.189276769757270813 0.198388636112213135
0.616779625415802002 -0.253044754266738892 0.375360786914825439
0.186378702521324158 0.113088347017765045 0.535482704639434814
0.692769408226013184 -0.22142086923122406 0.314048886299133301
0.552421212196350098 0.271370679140090942 0.314658582210540771
0.794402003288269043 0.115246191620826721 0.195659205317497253
0.718632042407989502 0.165125340223312378 0.18501831591129303
0.379430472850799561 -0.463711738586425781 0.382590919733047485
0.315540224313735962 0.268018126487731934 0.429192483425140381
0.0744611471891403198 -0.539335966110229492 0.410637974739074707
0.464426994323730469 0.264541357755661011 0.297058433294296265
0.697136282920837402 -0.0440357662737369537 0.258715361356735229
0.415845334529876709 0.28959539532661438 0.320095866918563843
0.742042481899261475 0.0908708050847053528 0.186155930161476135
0.659899234771728516 -0.304915368556976318 0.361216545104980469
0.353257536888122559 -0.468315303325653076 0.412507951259613037
0.685630559921264648 -0.0253056939691305161 0.215012252330780029
0.303441375494003296 0.277109980583190918 0.444063752889633179
0.753645062446594238 0.0184462461620569229 0.363814949989318848
0.73050844669342041 0.0143694756552577019 0.28217199444770813
0.386800855398178101 0.310031205415725708 0.316836386919021606
0.79799342155456543 0.042291298508644104 0.191139236092567444
0.495807468891143799 -0.299817144870758057 0.491770565509796143
0.529893994331359863 0.259130358695983887 0.302855700254440308
0.473577052354812622 -0.384592324495315552 0.366550832986831665
0.147920772433280945 0.109223656356334686 0.548677623271942139
0.731251955032348633 -0.0994653552770614624 0.310486972332000732
0.403527706861495972 0.291974097490310669 0.397836536169052124
0.700895071029663086 -0.067325204610824585 0.232623904943466187
0.73444056510925293 0.0955392047762870789 0.199468359351158142
0.503225982189178467 0.285573333501815796 0.346792727708816528
0.169918224215507507 0.122549749910831451 0.567654728889465332
0.687544524669647217 -0.186468914151191711 0.317022651433944702
0.781700551509857178 0.0453199036419391632 0.104146502912044525
0.0937497764825820923 0.0365144312381744385 0.595090389251708984
0.679134070873260498 -0.0407259911298751831 0.406430542469024658
0.348860383033752441 -0.479504585266113281 0.383341014385223389
0.748472213745117188 0.00104602775536477566 0.338704794645309448
0.772316157817840576 0.0821214988827705383 0.133270710706710815
0.740555524826049805 0.0886173248291015625 0.210037901997566223
0.0468189045786857605 -0.574617385864257812 0.391226917505264282
0.29238465428352356 0.239764407277107239 0.485208570957183838
0.696116387844085693 -0.212928324937820435 0.3166637122631073
0.237083867192268372 0.195806786417961121 0.503576397895812988
0.706354498863220215 0.0100814299657940865 0.220703050494194031
0.756415903568267822 0.0142789045348763466 0.218529015779495239
0.1048082634806633 0.057750064879655838 0.61950528621673584
0.618528306484222412 -0.224406808614730835 0.31497994065284729
0.782127022743225098 0.0194529406726360321 0.244485870003700256
0.766775965690612793 0.0225064642727375031 0.216498568654060364
0.628673851490020752 -0.249716997146606445 0.305026531219482422
0.67924124002456665 -0.199608594179153442 0.342508405447006226
0.56894761323928833 0.232526510953903198 0.326955676078796387
0.745324552059173584 0.0105917155742645264 0.24692438542842865
0.451628655195236206 0.264676451683044434 0.388428211212158203
0.468872189521789551 -0.430603474378585815 0.357575356960296631
0.67244410514831543 -0.0262900032103061676 0.217691436409950256
0.269352346658706665 -0.505182564258575439 0.385606467723846436
0.767315804958343506 -0.0350182577967643738 0.238409563899040222
0.64097142219543457 0.190787017345428467 0.226365029811859131
0.408148199319839478 0.294842272996902466 0.381331890821456909
0.546290099620819092 0.242634162306785583 0.360389202833175659
0.769528687000274658 -0.11126081645488739 0.317276418209075928
0.762156009674072266 -0.0350132249295711517 0.252657562494277954
0.39346805214881897 0.278779119253158569 0.405528426170349121
0.183038830757141113 0.192910656332969666 0.51856917142868042
0.4534149169921875 -0.40670168399810791 0.374041616916656494
0.639161527156829834 0.213766321539878845 0.176163136959075928
0.666084229946136475 0.173486396670341492 0.190283089876174927
0.55538707971572876 0.253650873899459839 0.31001436710357666
0.764285385608673096 0.0244114361703395844 0.200194314122200012
0.619083642959594727 -0.237996086478233337 0.351805567741394043
0.672132611274719238 -0.27641567587852478 0.358254313468933105
0.737425744533538818 -0.0914497971534729004 0.212330520153045654
0.818924069404602051 0.105136550962924957 0.112908415496349335
0.535480976104736328 0.271578371524810791 0.334866076707839966
0.414136737585067749 -0.453223198652267456 0.38482201099395752
0.77221834659576416 0.0956973731517791748 0.10252448171377182
0.190611973404884338 0.0996023416519165039 0.521783769130706787
0.700598597526550293 -0.145627081394195557 0.316632896661758423
0.810008645057678223 0.115227468311786652 0.0584326349198818207
0.458721250295639038 -0.430067747831344604 0.393858104944229126
-0.309625238180160522 -0.562156140804290771 0.345344007015228271
0.719364047050476074 -0.130270108580589294 0.288077384233474731
0.396273434162139893 0.233090788125991821 0.421211183071136475
0.723028838634490967 -0.0425485335290431976 0.232088997960090637
0.746865987777709961 -0.00339752435684204102 0.311472713947296143
0.73316490650177002 -0.0501033738255500793 0.225190728902816772
0.686392724514007568 0.096531994640827179 0.163751617074012756
0.0701166614890098572 -0.565138876438140869 0.363875627517700195
0.718554794788360596 0.0683597549796104431 0.152328848838806152
0.788352549076080322 0.0237293075770139694 0.188431605696678162
0.353302061557769775 0.336230754852294922 0.337128549814224243
0.313578903675079346 -0.461219966411590576 0.420628786087036133
0.744350075721740723 0.0850237160921096802 0.0870876088738441467
0.589069664478302002 -0.312896370887756348 0.414018869400024414
0.0731420665979385376 0.117299862205982208 0.591051280498504639
0.400258719921112061 0.27776569128036499 0.406829833984375
0.797873735427856445 0.0631539449095726013 0.055989239364862442
0.640353202819824219 -0.316623479127883911 0.31000208854675293
0.741877973079681396 0.023383166640996933 0.299254447221755981
0.806536078453063965 -0.00205830438062548637 0.207609117031097412
0.126294195652008057 0.12369835376739502 0.605518579483032227
0.366356015205383301 -0.494546204805374146 0.39670291543006897
0.760651707649230957 0.0323587171733379364 0.305383086204528809
-0.0249121692031621933 -0.0150681231170892715 0.608387768268585205
0.451302021741867065 -0.45280158519744873 0.379751652479171753
0.781909644603729248 0.0391179844737052917 0.169772446155548096
0.175158992409706116 0.127496466040611267 0.590098798274993896
0.657346487045288086 -0.197390198707580566 0.389317512512207031
0.821674048900604248 0.0860259756445884705 0.0687164366245269775
0.801843345165252686 0.0570504814386367798 0.151835590600967407
0.760869801044464111 -0.10949445515871048 0.30281442403793335
0.223656445741653442 -0.537790119647979736 0.389097124338150024
0.797529637813568115 -0.012872687540948391 0.20794282853603363
0.218936100602149963 -0.557330787181854248 0.388895928859710693
0.50912785530090332 0.238396018743515015 0.328133642673492432
0.367147982120513916 -0.443980664014816284 0.400946825742721558
0.525768756866455078 0.262027740478515625 0.289634972810745239
0.77044600248336792 0.0887682214379310608 0.074542514979839325
-0.130296915769577026 -0.579939305782318115 0.376517772674560547
-0.238865002989768982 -0.587826013565063477 0.403941571712493896
0.817079901695251465 0.0526147633790969849 0.153920978307723999
0.644042730331420898 -0.243748024106025696 0.362344920635223389
0.740859508514404297 -0.0574479736387729645 0.200303271412849426
0.744300305843353271 -0.00646603526547551155 0.318335831165313721
0.701759159564971924 0.0553542189300060272 0.142938047647476196
0.739405691623687744 -0.215076223015785217 0.292859166860580444
0.55436408519744873 0.226074472069740295 0.275223851203918457
-0.0627167746424674988 -0.599445044994354248 0.380965083837509155
0.660592973232269287 0.148621097207069397 0.19093012809753418
-0.112395480275154114 -0.562539160251617432 0.348102182149887085
0.661183953285217285 -0.224086865782737732 0.32832905650138855
0.234222382307052612 0.198834076523780823 0.536455273628234863
0.804712951183319092 0.0546649396419525146 0.057936597615480423
0.63048475980758667 -0.0756805166602134705 0.200120359659194946
0.80320209264755249 0.0765688642859458923 0.20223352313041687
0.763172805309295654 -0.0857568010687828064 0.283693194389343262
0.683071792125701904 -0.138432517647743225 0.319359123706817627
0.356219828128814697 -0.489292532205581665 0.387300699949264526
0.644542276859283447 0.193787842988967896 0.210666090250015259
0.515902161598205566 0.24857698380947113 0.375456243753433228
0.760292232036590576 -0.0191119946539402008 0.218395382165908813
0.644496142864227295 -0.0358144454658031464 0.218696624040603638
0.621674299240112305 0.214462652802467346 0.286314189434051514
0.520081579685211182 -0.334969460964202881 0.479757964611053467
-0.112670868635177612 -0.578705072402954102 0.326737582683563232
0.554815948009490967 -0.337679028511047363 0.39768180251121521
0.229574903845787048 -0.522069573402404785 0.415217489004135132
-0.174522623419761658 -0.564860701560974121 0.374148279428482056
0.506008386611938477 -0.448174834251403809 0.444705605506896973
0.732101738452911377 -0.126767665147781372 0.311781048774719238
0.62994849681854248 -0.0347699299454689026 0.194449424743652344
0.766497671604156494 0.0433462746441364288 0.169263079762458801
0.827026903629302979 0.0322697795927524567 0.185968980193138123
0.22291862964630127 -0.519614815711975098 0.396161079406738281
0.724847257137298584 0.141349002718925476 0.122739247977733612
0.0306916572153568268 -0.538984835147857666 0.350329428911209106
0.158009171485900879 0.138124465942382812 0.567229390144348145
0.0460251905024051666 0.0445721447467803955 0.583351790904998779
0.727442443370819092 -0.0217637158930301666 0.381360471248626709
0.82595902681350708 0.0453855767846107483 0.200083836913108826
0.712369859218597412 0.145671963691711426 0.158468678593635559
0.5041159987449646 -0.342861771583557129 0.345945149660110474
0.149684622883796692 -0.552900314331054688 0.380331754684448242
0.57069706916809082 0.215987950563430786 0.300332754850387573
0.166579976677894592 0.155934542417526245 0.548705995082855225
0.828412294387817383 0.0170343909412622452 0.187199726700782776
0.507167577743530273 -0.411876827478408813 0.385688304901123047
0.760387003421783447 0.0543236769735813141 0.168371066451072693
0.34721258282661438 -0.441112697124481201 0.39527931809425354
0.738491177558898926 0.0781906470656394958 0.159984886646270752
0.731968045234680176 0.0895476117730140686 0.156387120485305786
0.367636054754257202 -0.476329714059829712 0.395807266235351562
0.578485190868377686 0.247688204050064087 0.281928032636642456
0.88233029842376709 0.0498628169298171997 0.188926324248313904
0.793739557266235352 0.0601011998951435089 0.110514365136623383
0.701852619647979736 -0.0438286140561103821 0.244627311825752258
0.536268949508666992 0.238278403878211975 0.280999332666397095
0.695846736431121826 -0.184898942708969116 0.328177690505981445
0.53308635950088501 -0.375650882720947266 0.386104762554168701
0.643871903419494629 0.215001538395881653 0.250947803258895874
0.21315416693687439 0.168383151292800903 0.540981531143188477
0.260590046644210815 -0.520523190498352051 0.416335642337799072
0.46882927417755127 -0.405714631080627441 0.375158518552780151
0.690659463405609131 0.0804688036441802979 0.157231613993644714
0.512165427207946777 -0.394557535648345947 0.369564712047576904
0.610538482666015625 0.205966770648956299 0.248637750744819641
0.678789258003234863 0.161905691027641296 0.176172062754631042
0.831437587738037109 0.0288678295910358429 0.21067751944065094
0.7495078444480896 0.0111372107639908791 0.176707997918128967
0.79204326868057251 0.0112561965361237526 0.160628527402877808
0.490609496831893921 -0.429810285568237305 0.398977130651473999
0.845932364463806152 0.0749490559101104736 0.109336212277412415
0.519387006759643555 -0.421629250049591064 0.405130833387374878
0.305688440799713135 0.236709997057914734 0.465449154376983643
0.231170713901519775 -0.549137234687805176 0.368958264589309692
0.317819923162460327 0.227800369262695312 0.462720781564712524
0.80442279577255249 0.00163227622397243977 0.251665472984313965
0.714148521423339844 0.00854281056672334671 0.333793580532073975
0.317068576812744141 -0.530452907085418701 0.376357287168502808
0.827805161476135254 0.0936816707253456116 0.0742056295275688171
-0.0994688868522644043 -0.571105837821960449 0.378018677234649658
0.669030249118804932 -0.0974708721041679382 0.232997551560401917
0.14434601366519928 0.0587107948958873749 0.546185910701751709
0.652082145214080811 -0.305101215839385986 0.345595210790634155
0.0227095242589712143 0.0204188823699951172 0.576575815677642822
0.642452836036682129 0.192344918847084045 0.23798900842666626
0.718110799789428711 -0.152418002486228943 0.323398679494857788
0.745288312435150146 -0.0846037566661834717 0.310394257307052612
0.388233006000518799 0.271534562110900879 0.434556663036346436
0.787716209888458252 0.13985009491443634 0.147593557834625244
0.2529277503490448 0.226077377796173096 0.481038391590118408
0.628051221370697021 0.210800930857658386 0.184826672077178955
0.72496187686920166 -0.142057210206985474 0.297909051179885864
0.454344093799591064 0.286496430635452271 0.282027989625930786
0.503168702125549316 0.236523792147636414 0.335118412971496582
0.152223348617553711 0.123494669795036316 0.566499888896942139
0.654624462127685547 -0.268563598394393921 0.366783320903778076
0.381713986396789551 -0.45607990026473999 0.371806025505065918
-0.142013296484947205 -0.575613081455230713 0.372480541467666626
0.30038750171661377 -0.472690790891647339 0.402805835008621216
0.703629851341247559 -0.110115177929401398 0.329657286405563354
0.818494796752929688 0.0466720759868621826 0.120087273418903351
0.70916515588760376 -0.072523459792137146 0.260983198881149292
0.327749818563461304 0.222036018967628479 0.432978630065917969
-0.228352680802345276 -0.575437247753143311 0.382101148366928101
0.621875882148742676 0.129951402544975281 0.200912594795227051
0.404497206211090088 -0.453472137451171875 0.331365346908569336
0.127952247858047485 0.123071670532226562 0.569122195243835449
0.803451001644134521 0.0220216400921344757 0.146389231085777283
0.703880965709686279 0.0854943245649337769 0.189324319362640381
0.617543697357177734 -0.29320719838142395 0.31770738959312439
0.774038732051849365 0.0526724420487880707 0.180661335587501526
0.346967965364456177 0.298375099897384644 0.344005793333053589
0.501062393188476562 -0.420931488275527954 0.366518378257751465
0.375815093517303467 0.291013658046722412 0.427625775337219238
0.714211165904998779 -0.0241471752524375916 0.229138627648353577
0.813028633594512939 0.104746736586093903 0.0676684081554412842
0.785386919975280762 -0.0283696837723255157 0.233665391802787781
0.323034822940826416 0.276853740215301514 0.400557756423950195
0.6113852858543396 -0.24932311475276947 0.320640504360198975
0.759048521518707275 -0.00323238479904830456 0.276781469583511353
0.514247417449951172 0.267727315425872803 0.352185487747192383
0.653914272785186768 -0.022657003253698349 0.419917970895767212
0.12009652704000473 -0.545149505138397217 0.376619428396224976
0.816500604152679443 0.0857972428202629089 0.166221082210540771
0.778220832347869873 0.0469540506601333618 0.174639567732810974
0.545210957527160645 -0.375650584697723389 0.409950822591781616
0.0312902703881263733 0.0381783880293369293 0.614512085914611816
0.601997852325439453 0.230920076370239258 0.285061657428741455
0.594251096248626709 -0.330827713012695312 0.369413673877716064
0.373854637145996094 0.302668750286102295 0.410727500915527344
0.151627302169799805 0.105093061923980713 0.576215207576751709
0.652684390544891357 -0.319276601076126099 0.374581634998321533
0.194037750363349915 0.179359987378120422 0.521879673004150391
0.661356031894683838 -0.228377982974052429 0.309357583522796631
0.718877792358398438 -0.173009216785430908 0.349864423274993896
0.672476887702941895 -0.279784947633743286 0.400324493646621704
0.746371090412139893 -0.0223885830491781235 0.309659808874130249
0.522866487503051758 -0.37852141261100769 0.383387863636016846
0.559544861316680908 0.187035679817199707 0.291288226842880249
0.663030743598937988 -0.25579226016998291 0.356621205806732178
0.549697339534759521 -0.288866192102432251 0.432252287864685059
0.574012219905853271 0.200569584965705872 0.230058982968330383
0.464213103055953979 0.29893001914024353 0.400358676910400391
0.843146860599517822 0.077309340238571167 0.112229049205780029
0.38389277458190918 0.270952820777893066 0.42079538106918335
0.721212804317474365 -0.0192570146173238754 0.267180770635604858
0.214489132165908813 0.1567496657371521 0.480379015207290649
0.803741753101348877 0.0898877233266830444 0.114614911377429962
0.720435261726379395 -0.107103720307350159 0.264236092567443848
0.772569596767425537 -0.0472321957349777222 0.219280064105987549
0.337517023086547852 0.295030504465103149 0.40294724702835083
0.354345023632049561 0.262136369943618774 0.45370793342590332
0.693037927150726318 -0.134821623563766479 0.299704104661941528
0.695973575115203857 0.0095962081104516983 0.390454471111297607
0.7392120361328125 0.0073346220888197422 0.224687427282333374
0.0728452950716018677 -0.541875362396240234 0.388124257326126099
0.499643266201019287 -0.334794878959655762 0.476870566606521606
0.182799950242042542 0.146571233868598938 0.531257033348083496
-0.166638880968093872 -0.577591896057128906 0.336408227682113647
0.315555304288864136 0.265089839696884155 0.452852129936218262
0.708389937877655029 -0.0157182533293962479 0.349446773529052734
0.181882187724113464 0.126292914152145386 0.546742498874664307
0.692497313022613525 -0.0147686703130602837 0.209027305245399475
0.841708660125732422 0.126240074634552002 0.0283663943409919739
0.779035329818725586 -0.00416422402486205101 0.188471615314483643
0.57617110013961792 -0.31929481029510498 0.439537137746810913
0.737983226776123047 -0.168684661388397217 0.286079525947570801
-0.0733503848314285278 -0.567891716957092285 0.360353052616119385
0.778634905815124512 0.0854508429765701294 0.016718156635761261
0.608566105365753174 -0.351850330829620361 0.357808858156204224
0.649275362491607666 -0.254824906587600708 0.390305936336517334
0.567909121513366699 0.19787481427192688 0.269411951303482056
0.521246492862701416 0.243217602372169495 0.333031296730041504
-0.266422927379608154 -0.574790537357330322 0.326779037714004517
0.668113410472869873 -0.272853165864944458 0.33672294020652771
0.767975807189941406 0.0418429896235466003 0.184909328818321228
0.742136836051940918 -0.108748175203800201 0.292916238307952881
0.558249056339263916 0.239571988582611084 0.301869243383407593
0.636575281620025635 0.165588632225990295 0.230716362595558167
0.378616511821746826 -0.487245112657546997 0.405113160610198975
0.65092700719833374 -0.249224737286567688 0.319854438304901123
0.827839553356170654 0.0646847710013389587 -0.048284187912940979
0.736084342002868652 0.00779797788709402084 0.23222707211971283
0.630379378795623779 0.235788881778717041 0.285469323396682739
0.809395372867584229 0.0957235395908355713 0.139287874102592468
0.710680961608886719 -0.11826595664024353 0.312386602163314819
0.470292031764984131 0.269314616918563843 0.381135404109954834
0.525492846965789795 0.236082166433334351 0.325699001550674438
0.297861427068710327 -0.517055392265319824 0.399673819541931152
0.195068657398223877 -0.528091251850128174 0.381022632122039795
0.482393890619277954 -0.364373594522476196 0.392280727624893188
0.665099799633026123 0.187505483627319336 0.21835598349571228
0.224335804581642151 0.222500264644622803 0.4878406822681427
0.518920242786407471 0.263167291879653931 0.390491873025894165
0.726426422595977783 -0.0736114233732223511 0.270856380462646484
0.749026477336883545 -0.0561701953411102295 0.258954852819442749
0.276140332221984863 0.192696258425712585 0.451757460832595825
0.777391195297241211 0.124065510928630829 0.216446727514266968
0.67315065860748291 -0.188734009861946106 0.321825504302978516
0.500502288341522217 -0.449620187282562256 0.390269100666046143
0.814900219440460205 0.0933275893330574036 0.0800368413329124451
0.581703782081604004 -0.341039985418319702 0.345441967248916626
0.656569480895996094 -0.219586268067359924 0.419222325086593628
0.769943773746490479 0.0525741167366504669 0.174379661679267883
0.662902712821960449 -0.0246306508779525757 0.224843233823776245
0.774870932102203369 0.0524011589586734772 0.225015804171562195
0.240742519497871399 -0.528957664966583252 0.418260127305984497
0.413034617900848389 -0.49861830472946167 0.387644410133361816
0.183229014277458191 0.170555561780929565 0.522779285907745361
0.757789254188537598 0.0910824015736579895 0.175395548343658447
0.563071489334106445 -0.316650241613388062 0.420032501220703125
0.729372620582580566 -0.0114270895719528198 0.387240469455718994
0.821213960647583008 0.0523759461939334869 0.120740778744220734
0.0968784987926483154 -0.568250000476837158 0.388568490743637085
0.707333028316497803 -0.172342672944068909 0.299192249774932861
0.664049983024597168 -0.00424636015668511391 0.24094545841217041
0.83586806058883667 0.0526278167963027954 0.124086588621139526
0.175723075866699219 0.13396628201007843 0.555159509181976318
0.561918377876281738 0.22796379029750824 0.314914494752883911
0.626791000366210938 -0.242792889475822449 0.314293026924133301
0.802626430988311768 0.114154540002346039 0.103277787566184998
0.43875575065612793 -0.449798315763473511 0.407532602548599243
0.66667550802230835 -0.249758541584014893 0.343786776065826416
0.793196558952331543 0.050530754029750824 0.127001911401748657
0.742231547832489014 -0.0140757719054818153 0.189172476530075073
0.755800545215606689 -0.0500996112823486328 0.246383830904960632
0.412563681602478027 -0.462102591991424561 0.36129412055015564
0.291173964738845825 -0.526450455188751221 0.407596170902252197
0.485959768295288086 0.266778826713562012 0.349671423435211182
0.0383696332573890686 0.0197418052703142166 0.617522060871124268
0.652249693870544434 0.186267554759979248 0.199505478143692017
0.747315883636474609 0.0690476149320602417 0.0991645976901054382
0.744858920574188232 -0.10461367666721344 0.302248537540435791
0.681092739105224609 -0.17595769464969635 0.310336172580718994
0.666028380393981934 -0.079609602689743042 0.30913195013999939
0.557674765586853027 -0.332714229822158813 0.463744968175888062
0.728397071361541748 -0.036177169531583786 0.214191868901252747
0.806658327579498291 0.0330991819500923157 0.181324601173400879
0.701932311058044434 0.1594734787940979 0.223182588815689087
0.714578330516815186 -0.207413420081138611 0.310408622026443481
0.557364344596862793 0.265698105096817017 0.263559877872467041
0.778946638107299805 0.0304369926452636719 0.172064483165740967
0.684881389141082764 -0.201317757368087769 0.324126720428466797
0.816072463989257812 0.107548028230667114 0.154353335499763489
0.770444333553314209 -0.0441311709582805634 0.237057387828826904
0.198567524552345276 0.178453117609024048 0.53166651725769043
0.152752235531806946 -0.523563742637634277 0.381926923990249634
0.649920165538787842 0.188423305749893188 0.212188199162483215
0.722131609916687012 -0.097232624888420105 0.26290285587310791
0.345313370227813721 -0.467496693134307861 0.391075164079666138
0.716375291347503662 0.073602825403213501 0.170427456498146057
0.314125627279281616 0.211563244462013245 0.486976861953735352
-0.277193546295166016 -0.565864622592926025 0.357947111129760742
0.0829336121678352356 0.0865576565265655518 0.588938534259796143
0.716931521892547607 -0.0133086955174803734 0.277179896831512451
0.715539038181304932 -0.175656989216804504 0.330251187086105347
0.65067213773727417 -0.210061237215995789 0.3498058021068573
0.0946551784873008728 0.112652391195297241 0.557027339935302734
0.633097052574157715 -0.0626515597105026245 0.210820809006690979
0.645759105682373047 0.169270649552345276 0.242972135543823242
0.659828603267669678 0.21237558126449585 0.218254894018173218
0.568501412868499756 0.249430522322654724 0.260778367519378662
0.779250025749206543 0.101591035723686218 0.0620025135576725006
0.74093317985534668 -0.0632338523864746094 0.220401525497436523
0.777907192707061768 -0.0121178431436419487 0.210915669798851013
0.601950168609619141 0.133253023028373718 0.20882202684879303
0.239133790135383606 0.21304088830947876 0.508893013000488281
0.540056586265563965 0.224100738763809204 0.265417367219924927
0.564317405223846436 -0.304324954748153687 0.444377332925796509
0.763260483741760254 0.0477060936391353607 0.135889843106269836
0.207981064915657043 0.178563907742500305 0.526210129261016846
0.495925158262252808 0.246258527040481567 0.343266099691390991
0.628359019756317139 -0.285748481750488281 0.366106659173965454
-0.198005497455596924 -0.592906832695007324 0.396757125854492188
0.592969417572021484 0.190713569521903992 0.216764181852340698
0.155326515436172485 0.131128996610641479 0.562221229076385498
0.73418271541595459 0.0968823358416557312 0.143900096416473389
0.257328629493713379 -0.517724037170410156 0.434187591075897217
0.564814507961273193 -0.320505499839782715 0.426810145378112793
0.42296949028968811 -0.428738862276077271 0.371605128049850464
0.759151875972747803 0.0295904483646154404 0.200632050633430481
0.120436869561672211 0.089406818151473999 0.602774679660797119
0.623548984527587891 -0.242062121629714966 0.333407461643218994
0.540353715419769287 -0.402861088514328003 0.388192117214202881
0.17118304967880249 0.134813353419303894 0.545810699462890625
0.582604467868804932 -0.302860021591186523 0.342915266752243042
0.609147250652313232 0.1736859530210495 0.166169196367263794
0.342703640460968018 0.326152384281158447 0.338158100843429565
0.795323789119720459 0.0817735567688941956 0.222160801291465759
0.739808499813079834 -0.0110649894922971725 0.315755754709243774
0.749832630157470703 -0.118760429322719574 0.290352910757064819
0.820796072483062744 0.0616044513881206512 0.151678010821342468
0.644491314888000488 -0.302516430616378784 0.387786626815795898
0.68133080005645752 -0.26039886474609375 0.322776645421981812
0.786694765090942383 0.0767285898327827454 0.172801122069358826
0.285980194807052612 0.225214406847953796 0.477524340152740479
0.800293087959289551 0.124187260866165161 0.105347879230976105
0.759424448013305664 -0.0985318645834922791 0.348228901624679565
0.607858836650848389 0.277649521827697754 0.291584134101867676
0.251623570919036865 -0.520604312419891357 0.41069522500038147
0.70446479320526123 0.148296713829040527 0.206568598747253418
-0.0206967219710350037 0.0039796740747988224 0.614473402500152588
0.202892228960990906 0.194701015949249268 0.514778077602386475
0.796298205852508545 0.0625291243195533752 0.180343985557556152
0.567605137825012207 0.210060223937034607 0.255233794450759888
0.7544822096824646 -0.00143324316013604403 0.362210303544998169
0.679449200630187988 -0.148359701037406921 0.350912481546401978
0.161706671118736267 -0.544463574886322021 0.370393544435501099
0.189591899514198303 0.196823343634605408 0.492590874433517456
0.758684813976287842 0.0850106179714202881 0.044686492532491684
0.237573921680450439 -0.530649721622467041 0.369878172874450684
0.774959743022918701 0.0413001477718353271 0.182290241122245789
0.148580491542816162 0.126471102237701416 0.585891962051391602
0.597353875637054443 0.234395712614059448 0.240219458937644958
0.627513468265533447 -0.313756495714187622 0.406004220247268677
0.546888947486877441 -0.320275157690048218 0.373280555009841919
0.117875680327415466 0.104069463908672333 0.581082582473754883
0.762565255165100098 0.0517384670674800873 0.168234318494796753
0.639751970767974854 0.191469058394432068 0.204806059598922729
0.63365936279296875 -0.158068269491195679 0.307643383741378784
-0.0714408382773399353 -0.570024013519287109 0.359929710626602173
0.370486825704574585 0.26684272289276123 0.416806548833847046
0.725273549556732178 -0.0300810281187295914 0.247251585125923157
0.635796129703521729 0.211578473448753357 0.235833331942558289
0.0657745078206062317 0.0551705546677112579 0.622583448886871338
0.23342481255531311 0.162905782461166382 0.501390397548675537
0.598309218883514404 0.209414586424827576 0.22520744800567627
0.356120765209197998 0.332888662815093994 0.354467839002609253
0.58930504322052002 -0.318965733051300049 0.410268276929855347
0.718491435050964355 -0.104916855692863464 0.283077657222747803
0.639765262603759766 -0.044847000390291214 0.440365970134735107
0.584757864475250244 -0.309503257274627686 0.410949200391769409
-0.0664028003811836243 -0.587066411972045898 0.35467180609703064
-0.304547548294067383 -0.555518686771392822 0.37919047474861145
0.737235486507415771 -0.000984838581643998623 0.326404541730880737
0.320574402809143066 -0.498678296804428101 0.423650115728378296
0.111570417881011963 -0.519072473049163818 0.341135561466217041
0.789805471897125244 0.109840929508209229 0.0915319323539733887
0.742016017436981201 0.0255177021026611328 0.3184012770652771
0.579630613327026367 0.208098515868186951 0.282407671213150024
0.613059401512145996 0.143574893474578857 0.187184050679206848
0.704859316349029541 -0.13421320915222168 0.319419533014297485
0.63949286937713623 0.185009971261024475 0.217557817697525024
0.783533275127410889 0.117019616067409515 0.0726312771439552307
0.823746025562286377 0.0734498128294944763 0.145805537700653076
-0.300693273544311523 -0.594303250312805176 0.348636865615844727
0.707689642906188965 -0.193536624312400818 0.29397466778755188
0.682388365268707275 -0.226665303111076355 0.358974158763885498
0.613676011562347412 -0.2881622314453125 0.397261679172515869
0.429159373044967651 0.260719239711761475 0.387630879878997803
0.673291563987731934 -0.187547683715820312 0.355608463287353516
-0.0469727106392383575 -0.577368855476379395 0.379714876413345337
0.478486925363540649 -0.442124366760253906 0.397961407899856567
0.73668360710144043 -0.0960455834865570068 0.282763451337814331
0.581395089626312256 -0.307900220155715942 0.402132928371429443
0.593438684940338135 -0.326164782047271729 0.413747698068618774
0.754306316375732422 0.0864384621381759644 0.164656519889831543
0.729585468769073486 -0.152181193232536316 0.334292858839035034
0.762462794780731201 -0.103659197688102722 0.304621130228042603
0.483132004737854004 -0.403027445077896118 0.363354235887527466
0.598159551620483398 -0.326575666666030884 0.393314510583877563
0.822748184204101562 0.0912758558988571167 0.167071223258972168
0.816762566566467285 0.0938553810119628906 0.147088006138801575
0.128575146198272705 0.0916203483939170837 0.628856360912322998
0.672533690929412842 0.252302229404449463 0.241732329130172729
0.690383970737457275 -0.177456095814704895 0.32559618353843689
0.0864400118589401245 0.105662375688552856 0.581693410873413086
0.805806994438171387 -0.00102378090377897024 0.209507033228874207
0.200644031167030334 0.198838397860527039 0.487815618515014648
0.615672469139099121 -0.278129816055297852 0.294917851686477661
0.801376998424530029 0.0777601152658462524 0.16561637818813324
0.693133533000946045 -0.10459359735250473 0.289037078619003296
0.215372860431671143 -0.534461379051208496 0.383328378200531006
0.252954810857772827 0.176535457372665405 0.500595510005950928
0.829888284206390381 0.0389199554920196533 0.103552699089050293
0.252500265836715698 -0.517698884010314941 0.409064263105392456
0.81100308895111084 0.0939757972955703735 0.164469391107559204
0.632503688335418701 -0.298912614583969116 0.341483652591705322
0.626262426376342773 -0.303539752960205078 0.371127933263778687
0.762731254100799561 -0.00140120857395231724 0.29758298397064209
0.44231531023979187 0.256382554769515991 0.370846956968307495
0.458001881837844849 0.294709324836730957 0.367478340864181519
0.553904712200164795 -0.354443877935409546 0.403017878532409668
0.807592034339904785 -0.0660795345902442932 0.258877545595169067
0.752933084964752197 -0.0374217219650745392 0.182702302932739258
0.765388786792755127 -0.0952809080481529236 0.287205308675765991
0.72096329927444458 -0.128102734684944153 0.307320892810821533
0.542535901069641113 -0.316063761711120605 0.408243238925933838
0.577274441719055176 -0.336395353078842163 0.412165611982345581
0.580898046493530273 0.211722329258918762 0.291341185569763184
0.283800303936004639 0.217813640832901001 0.476381808519363403
0.139924362301826477 -0.544528484344482422 0.369299024343490601
0.09574107825756073 0.0737535133957862854 0.5944938063621521
0.593503296375274658 -0.271111816167831421 0.348632156848907471
0.680730521678924561 -0.157898440957069397 0.299665302038192749
0.424545347690582275 0.279881834983825684 0.325502991676330566
0.749973595142364502 0.123871125280857086 0.181022435426712036
0.3237648606300354 -0.510830700397491455 0.395450383424758911
0.747428357601165771 -0.048430122435092926 0.285954415798187256
0.691771090030670166 0.0924746468663215637 0.188089460134506226
0.820819318294525146 0.068890690803527832 0.157505720853805542
0.709390163421630859 -0.00125744275283068419 0.257113099098205566
0.290841788053512573 0.25421944260597229 0.474910914897918701
0.503405392169952393 -0.319262921810150146 0.430718779563903809
0.838690102100372314 -0.000870019604917615652 0.219129234552383423
0.676620304584503174 -0.0292481314390897751 0.203208088874816895
0.521769940853118896 0.263587623834609985 0.309627950191497803
0.540191590785980225 -0.39305579662322998 0.359999477863311768
0.411876589059829712 0.302814900875091553 0.325581401586532593
-0.178742513060569763 -0.582143604755401611 0.373048484325408936
0.527395367622375488 0.231840923428535461 0.298538476228713989
0.78319472074508667 -0.0900350958108901978 0.292657256126403809
0.450183749198913574 0.301026046276092529 0.30419456958770752
0.827584624290466309 0.0294430740177631378 0.149048492312431335
0.636010825634002686 -0.362242907285690308 0.396855562925338745
0.748842895030975342 0.0692534893751144409 0.148793458938598633
0.691557407379150391 -0.182727038860321045 0.340539515018463135
0.750430941581726074 -0.0159529633820056915 0.267505556344985962
0.684348225593566895 -0.263784170150756836 0.322582900524139404
0.554075300693511963 -0.32683977484703064 0.39930996298789978
0.709141731262207031 -0.116315983235836029 0.30373188853263855
0.603709936141967773 -0.321301549673080444 0.434020429849624634
0.667174935340881348 -0.239046275615692139 0.343817979097366333
0.734438896179199219 0.00747208530083298683 0.262154102325439453
0.708724439144134521 0.0718270242214202881 0.161307066679000854
0.629899919033050537 -0.265457183122634888 0.329522877931594849
0.171241521835327148 0.186874821782112122 0.54986727237701416
-0.235865086317062378 -0.576383769512176514 0.367309361696243286
0.76987844705581665 -0.000980963115580379963 0.21329168975353241
0.854183733463287354 0.106682434678077698 0.127577200531959534
0.208036020398139954 0.177189335227012634 0.532498657703399658
0.526542305946350098 0.257028400897979736 0.318293988704681396
0.680532693862915039 0.113478794693946838 0.159175857901573181
0.517252743244171143 0.260086417198181152 0.359547019004821777
-0.0151508031412959099 -0.564836025238037109 0.367354393005371094
0.725511610507965088 0.135436788201332092 0.182531371712684631
0.411630034446716309 -0.475216329097747803 0.436891347169876099
0.717885076999664307 -0.158999383449554443 0.31392204761505127
0.74335479736328125 -0.0311794374138116837 0.295549303293228149
0.483445912599563599 0.243379697203636169 0.391172885894775391
0.767759740352630615 0.0276251696050167084 0.0763880982995033264
0.64330601692199707 0.153829857707023621 0.185098811984062195
0.162234291434288025 0.152502477169036865 0.574229955673217773
0.670246720314025879 -0.190131112933158875 0.297735154628753662
0.804181158542633057 0.0883335098624229431 0.10780884325504303
0.746256232261657715 0.0141074396669864655 0.30564996600151062
0.259059309959411621 -0.539518475532531738 0.33411175012588501
0.492801308631896973 0.261827170848846436 0.394005298614501953
0.705084502696990967 0.123087622225284576 0.194689452648162842
0.179702058434486389 0.141107991337776184 0.591262221336364746
0.473269134759902954 -0.434546500444412231 0.388983309268951416
0.277424812316894531 -0.51263892650604248 0.383162856101989746
0.554138898849487305 0.253999114036560059 0.272469252347946167
0.692132949829101562 -0.215701386332511902 0.289782673120498657
0.569568097591400146 0.22255629301071167 0.259317845106124878
0.592065691947937012 -0.305520921945571899 0.346000254154205322
0.350387632846832275 0.268033087253570557 0.396365910768508911
0.627062022686004639 0.183318585157394409 0.255154162645339966
0.388257414102554321 -0.474373817443847656 0.393727749586105347
0.335183709859848022 -0.458707302808761597 0.393547266721725464
0.118545576930046082 0.0945606231689453125 0.594550609588623047
0.73247528076171875 -0.00194366555660963058 0.334352105855941772
0.592620730400085449 0.250015050172805786 0.2525501549243927
0.607908964157104492 0.186146169900894165 0.224218457937240601
0.382620006799697876 0.316046774387359619 0.328498929738998413
0.165606111288070679 0.171021178364753723 0.552375078201293945
0.662261366844177246 -0.287366539239883423 0.365961402654647827
0.445616543292999268 0.269401192665100098 0.291934043169021606
0.326430708169937134 0.246128693222999573 0.464367181062698364
0.111938349902629852 0.0886547267436981201 0.590969979763031006
0.227257758378982544 -0.534833550453186035 0.37769666314125061
0.78167349100112915 0.0212921258062124252 0.254838496446609497
0.406171441078186035 0.294771462678909302 0.332570880651473999
0.539497673511505127 -0.392668396234512329 0.384683430194854736
0.53353416919708252 -0.373481005430221558 0.417903304100036621
-0.171214163303375244 -0.570768594741821289 0.349516570568084717
0.620877861976623535 0.234274774789810181 0.244289830327033997
0.740758955478668213 0.0247658137232065201 0.181796401739120483
0.737610936164855957 -0.00459056813269853592 0.20895598828792572
0.696202635765075684 -0.221618115901947021 0.338910967111587524
0.291365683078765869 -0.520576298236846924 0.374735504388809204
0.494645535945892334 0.255724340677261353 0.358385145664215088
0.56305772066116333 0.248301595449447632 0.276000618934631348
0.189304560422897339 -0.545319676399230957 0.356657862663269043
0.722681820392608643 -0.116752691566944122 0.299675196409225464
0.656872212886810303 -0.226636171340942383 0.340714871883392334
0.605367720127105713 0.210486233234405518 0.195168957114219666
0.404998451471328735 -0.404320746660232544 0.42303013801574707
0.666792154312133789 -0.258144587278366089 0.323768764734268188
0.439476132392883301 0.296026706695556641 0.295349210500717163
-0.226782113313674927 -0.552319705486297607 0.397347360849380493
0.746710836887359619 -0.00506887771189212799 0.236484795808792114
0.747449874877929688 0.081590116024017334 0.183729767799377441
0.594829916954040527 -0.327841818332672119 0.374328553676605225
0.768122017383575439 -0.0708651766180992126 0.259106248617172241
0.500963866710662842 -0.406296581029891968 0.378573775291442871
0.760393023490905762 0.046288754791021347 0.118312917649745941
0.109954103827476501 0.103647910058498383 0.588941872119903564
0.676238000392913818 -0.241003841161727905 0.358806878328323364
0.562323093414306641 -0.358312159776687622 0.403754562139511108
0.622747361660003662 0.0937350913882255554 0.158579334616661072
0.601701200008392334 0.175478741526603699 0.309894084930419922
0.842895627021789551 0.0729342848062515259 0.149384185671806335
0.759254932403564453 0.124125063419342041 0.100498788058757782
0.596623122692108154 0.231761142611503601 0.265399694442749023
0.742177724838256836 -0.0848953425884246826 0.277754157781600952
0.503090858459472656 -0.359090447425842285 0.334146946668624878
0.556701242923736572 0.230276942253112793 0.319884151220321655
0.723415195941925049 -0.0968157574534416199 0.304091930389404297
0.0775005072355270386 -0.552051782608032227 0.399833559989929199
0.634222626686096191 -0.24687492847442627 0.292192459106445312
0.790419280529022217 0.0373323671519756317 0.115514427423477173
0.769824743270874023 0.0469917692244052887 0.147499576210975647
0.101499535143375397 0.0818779245018959045 0.584243357181549072
0.204556405544281006 -0.534516096115112305 0.372915357351303101
0.747723162174224854 -0.0392863005399703979 0.231941759586334229
0.232137575745582581 -0.493846982717514038 0.39606475830078125
0.804544150829315186 0.0745730176568031311 0.0479917377233505249
0.628405094146728516 0.217019304633140564 0.233769416809082031
0.330524057149887085 0.237404957413673401 0.448943555355072021
0.322573304176330566 0.223822742700576782 0.445429950952529907
0.572325527667999268 0.184580966830253601 0.25449138879776001
