ply
format ascii 1.0
element vertex 730
comment vertices
property float x
property float y
property float z
end_header
0.195225998759269714 -0.251011013984680176 -0.387140095233917236
0.583283722400665283 -0.233455553650856018 -0.122031509876251221
-0.11625005304813385 0.183191597461700439 0.0350807979702949524
0.324391812086105347 -0.264324158430099487 -0.331986159086227417
-0.218071162700653076 0.0884004086256027222 -0.100111164152622223
-0.222955897450447083 -0.0344267375767230988 0.0846403762698173523
-0.235358983278274536 -0.0101924948394298553 0.0731453672051429749
-0.203775361180305481 -0.0302294399589300156 -0.204511493444442749
-0.221415489912033081 -0.0642086490988731384 -0.235352188348770142
-0.29844200611114502 -0.101418942213058472 0.137530714273452759
-0.0787857845425605774 -0.198459476232528687 -0.346649497747421265
0.147764191031455994 -0.253908336162567139 -0.368595153093338013
-0.156685382127761841 -0.135071873664855957 -0.310523062944412231
-0.263579130172729492 0.0434567071497440338 0.0496587380766868591
-0.128135651350021362 0.105844751000404358 -0.0595418699085712433
0.482738673686981201 -0.252352982759475708 -0.275867849588394165
0.375767827033996582 -0.271125137805938721 -0.335589706897735596
-0.202323243021965027 0.0636757314205169678 -0.0475548915565013885
0.0543055906891822815 -0.248192459344863892 -0.414260327816009521
0.203916758298873901 -0.240896657109260559 -0.379953622817993164
-0.221866071224212646 0.0103901848196983337 -0.129161134362220764
0.490214109420776367 -0.247718736529350281 -0.294921427965164185
-0.297758698463439941 -0.0846643894910812378 0.181247085332870483
0.0408573932945728302 -0.228819593787193298 -0.400982201099395752
-0.293345719575881958 -0.0334786437451839447 0.11307159811258316
0.129772305488586426 -0.26918908953666687 -0.423952043056488037
0.503481626510620117 -0.207875818014144897 -0.210895225405693054
-0.204828456044197083 0.0260113533586263657 -0.142276540398597717
-0.18343508243560791 -0.135813996195793152 -0.326557040214538574
-0.144241377711296082 -0.216447770595550537 -0.344082921743392944
-0.0384788773953914642 -0.202852070331573486 -0.348286479711532593
-0.235070407390594482 -0.105957075953483582 -0.255142450332641602
0.357876598834991455 -0.253779798746109009 -0.389445513486862183
-0.172566235065460205 -0.099536702036857605 -0.275011658668518066
-0.186666116118431091 0.0461915470659732819 -0.114059321582317352
0.549291849136352539 -0.20605410635471344 -0.220163166522979736
-0.216479063034057617 -0.114351905882358551 -0.266365379095077515
-0.270897209644317627 -0.0731976777315139771 0.089942149817943573
0.202934086322784424 -0.257811278104782104 -0.340028643608093262
0.610114216804504395 -0.155381545424461365 -0.162622720003128052
-0.0287828575819730759 -0.275266706943511963 -0.368179410696029663
-0.36552661657333374 -0.156127959489822388 0.228834614157676697
-0.160038575530052185 -0.193216249346733093 -0.340936362743377686
-0.193101957440376282 0.176845639944076538 0.103026866912841797
-0.201136678457260132 -0.00539148319512605667 -0.146834477782249451
0.488477230072021484 -0.203460976481437683 -0.255713492631912231
-0.287594527006149292 -0.0663363337516784668 0.152958124876022339
-0.270176798105239868 -0.00355109735392034054 0.0612042061984539032
0.0712967142462730408 -0.213915348052978516 -0.354609698057174683
-0.145753279328346252 0.125555440783500671 -0.0837051793932914734
-0.0814040079712867737 0.101329714059829712 -0.0464361347258090973
0.548970997333526611 -0.187095403671264648 -0.198738187551498413
0.5301055908203125 -0.215589225292205811 -0.270904898643493652
-0.212846547365188599 -0.115200646221637726 -0.311145246028900146
-0.289282828569412231 0.0158088821917772293 0.0630116686224937439
0.313523441553115845 -0.263927310705184937 -0.363531380891799927
-0.125935584306716919 0.237621620297431946 0.0615504197776317596
-0.112821303308010101 0.161922529339790344 -0.015707310289144516
-0.176540076732635498 -0.0348039232194423676 -0.212975621223449707
-0.0862350761890411377 0.133534371852874756 -0.0316887907683849335
-0.220917731523513794 -0.0487909838557243347 -0.220055937767028809
-0.137463688850402832 0.138138726353645325 -0.0806372165679931641
0.263440102338790894 -0.25483819842338562 -0.318137258291244507
-0.0812439024448394775 -0.209765136241912842 -0.363216221332550049
0.490140318870544434 -0.224243864417076111 -0.27054867148399353
-0.327988266944885254 -0.0892087221145629883 0.113225743174552917
-0.107510685920715332 0.252627909183502197 0.0967770814895629883
-0.279137492179870605 -0.0660487338900566101 0.150874614715576172
0.370760291814804077 -0.220491170883178711 -0.364627063274383545
-0.12162075936794281 -0.215264782309532166 -0.371849209070205688
0.552179276943206787 -0.278915971517562866 -0.225924670696258545
-0.278610080480575562 -0.095350995659828186 0.151717200875282288
0.37457689642906189 -0.271448254585266113 -0.373726069927215576
-0.166951075196266174 0.0161352921277284622 -0.248619183897972107
0.22066892683506012 -0.257318049669265747 -0.398347139358520508
-0.145202815532684326 -0.147250980138778687 -0.339368104934692383
-0.151473835110664368 -0.213366284966468811 -0.400987625122070312
-0.184488117694854736 -0.079738326370716095 -0.295642167329788208
-0.0589870773255825043 -0.209683507680892944 -0.338587641716003418
0.355843842029571533 -0.228490337729454041 -0.372576862573623657
0.352952122688293457 -0.257713079452514648 -0.348250597715377808
-0.263831794261932373 0.012668190523982048 0.0876187682151794434
-0.239819616079330444 -0.0949401780962944031 -0.299855828285217285
-0.180818766355514526 0.225252911448478699 0.172763735055923462
0.115735627710819244 -0.218995094299316406 -0.356042355298995972
-0.275455504655838013 -0.0238724816590547562 0.0675196051597595215
-0.271782010793685913 0.0436702482402324677 -0.0200505610555410385
-0.271130740642547607 0.0646722912788391113 -0.0369042344391345978
-0.309243559837341309 -0.075431428849697113 0.131904140114784241
0.359081834554672241 -0.303560882806777954 -0.373366624116897583
-0.17021535336971283 -0.109426245093345642 -0.262977004051208496
-0.224004074931144714 0.193462744355201721 0.129666045308113098
0.28521418571472168 -0.25812879204750061 -0.308577597141265869
-0.177584916353225708 0.0729605928063392639 -0.0944006592035293579
0.626450955867767334 -0.247451931238174438 -0.152447059750556946
-0.12795884907245636 0.130582347512245178 0.021312495693564415
0.575500905513763428 -0.157999947667121887 -0.175379544496536255
-0.150966525077819824 -0.150611951947212219 -0.321500629186630249
-0.127761170268058777 -0.134119987487792969 -0.299980282783508301
-0.181420713663101196 -0.174496293067932129 -0.310507863759994507
-0.227938935160636902 0.0444553010165691376 0.0297336913645267487
0.0327244624495506287 -0.229833438992500305 -0.382284432649612427
0.333537548780441284 -0.260838896036148071 -0.361691296100616455
0.420469313859939575 -0.257396042346954346 -0.329681068658828735
-0.184719294309616089 -0.0443808324635028839 -0.285304933786392212
0.598022580146789551 -0.138769268989562988 -0.0815425217151641846
0.610099554061889648 -0.112736113369464874 -0.129124373197555542
-0.326120674610137939 -0.167279288172721863 0.236928030848503113
-0.27628365159034729 -0.0598836131393909454 0.100122615694999695
0.30829930305480957 -0.298815041780471802 -0.313439279794692993
0.57854163646697998 -0.19697222113609314 -0.203548043966293335
-0.197091385722160339 0.0332197360694408417 -0.0350931659340858459
-0.235570192337036133 0.0517310984432697296 -0.00798367336392402649
-0.291238754987716675 -0.0164727345108985901 0.0790871605277061462
0.553284347057342529 -0.189051151275634766 -0.170318171381950378
0.59510272741317749 -0.113077245652675629 -0.107244901359081268
-0.204772859811782837 -0.112941667437553406 -0.254661083221435547
-0.213846996426582336 0.0200289562344551086 -0.1512347012758255
0.361187130212783813 -0.273027509450912476 -0.374350666999816895
0.584748744964599609 -0.16204427182674408 -0.1857786625623703
-0.0725786015391349792 0.138159900903701782 -0.0395074561238288879
0.129959613084793091 -0.24878479540348053 -0.377918928861618042
-0.2971477210521698 -0.0795723050832748413 0.161504060029983521
-0.0408762060105800629 -0.206171125173568726 -0.363421529531478882
0.503229439258575439 -0.253307849168777466 -0.335121601819992065
-0.35001075267791748 -0.161333739757537842 0.24582989513874054
0.604280591011047363 -0.146832495927810669 -0.144886866211891174
-0.275870949029922485 0.0624604709446430206 -0.157448887825012207
-0.219732969999313354 0.0923536941409111023 -0.128952905535697937
0.600541532039642334 -0.165975868701934814 -0.148342996835708618
-0.16800767183303833 -0.104774355888366699 -0.321415215730667114
-0.28630298376083374 -0.039159819483757019 0.059011068195104599
-0.193814218044281006 -0.00025042696506716311 -0.174004554748535156
-0.131002575159072876 -0.0355246439576148987 -0.237338930368423462
-0.0376470759510993958 -0.208651989698410034 -0.352979511022567749
-0.141826599836349487 0.102986089885234833 -0.0610125511884689331
-0.190128177404403687 0.0855080261826515198 -0.115211881697177887
-0.228008121252059937 -0.0701470673084259033 -0.265406221151351929
-0.293688803911209106 -0.08254212886095047 0.0530369244515895844
0.270903110504150391 -0.267151117324829102 -0.377902686595916748
-0.0657974705100059509 0.159428313374519348 -0.0101858107373118401
-0.304171055555343628 0.0343729071319103241 0.0357038974761962891
0.613445937633514404 -0.189006686210632324 -0.153468236327171326
-0.247622057795524597 -0.0642762258648872375 -0.24549400806427002
-0.303347855806350708 -0.10096423327922821 0.165460407733917236
-0.354259133338928223 -0.145055383443832397 0.251545846462249756
-0.157444357872009277 -0.134206816554069519 -0.31750914454460144
0.348466455936431885 -0.254505068063735962 -0.367911309003829956
-0.185667350888252258 0.0933898985385894775 -0.0800020769238471985
0.0810619592666625977 -0.242054611444473267 -0.384882807731628418
0.291666597127914429 -0.227314651012420654 -0.331415414810180664
0.115930870175361633 -0.22761237621307373 -0.376579165458679199
-0.0839358121156692505 0.136403337121009827 -0.0184405650943517685
0.217348873615264893 -0.271765083074569702 -0.341885149478912354
0.344637840986251831 -0.216950461268424988 -0.364384502172470093
-0.317432224750518799 -0.11622050404548645 0.209223255515098572
-0.343238472938537598 -0.19153265655040741 0.262038260698318481
-0.234563514590263367 0.0689903348684310913 0.00973921455442905426
-0.135864749550819397 0.1659565269947052 0.0232350453734397888
-0.236039623618125916 -0.0577487833797931671 -0.25464320182800293
-0.349378764629364014 -0.176860794425010681 0.280767500400543213
-0.314064830541610718 -0.109558559954166412 0.148526206612586975
-0.206639036536216736 -0.140602558851242065 -0.299007058143615723
0.152031421661376953 -0.192004948854446411 -0.382604002952575684
0.570177316665649414 -0.234885990619659424 -0.209981516003608704
-0.188421204686164856 0.0568079426884651184 -0.0656018778681755066
-0.265126138925552368 0.0468177497386932373 0.0516979619860649109
0.563237845897674561 -0.226750180125236511 -0.239857405424118042
0.484711349010467529 -0.266665846109390259 -0.246890068054199219
0.161784619092941284 -0.272354274988174438 -0.368496447801589966
0.450025409460067749 -0.299619883298873901 -0.292158365249633789
0.430777639150619507 -0.198262870311737061 -0.247688576579093933
-0.174055635929107666 -0.219379380345344543 -0.400867670774459839
-0.034924585372209549 -0.253311514854431152 -0.366361469030380249
0.557149589061737061 -0.215740561485290527 -0.146011769771575928
0.5806618332862854 -0.202465459704399109 -0.153902366757392883
-0.230980038642883301 -0.0776222050189971924 -0.211610376834869385
-0.217415481805801392 0.0118737928569316864 -0.171655043959617615
0.399812191724777222 -0.273140043020248413 -0.39418405294418335
0.498755097389221191 -0.271750956773757935 -0.325094550848007202
-0.152617752552032471 0.0477760210633277893 -0.0925868377089500427
-0.0859199613332748413 -0.218006893992424011 -0.391555845737457275
0.516439080238342285 -0.249515682458877563 -0.18922954797744751
-0.215039342641830444 -0.0144455162808299065 -0.201265349984169006
-0.109555192291736603 0.114147312939167023 0.000180561852175742388
0.434595257043838501 -0.284374356269836426 -0.347627699375152588
-0.16759181022644043 -0.00194843474309891462 -0.161068111658096313
0.530908763408660889 -0.181968316435813904 -0.117741897702217102
-0.22747214138507843 0.0628727898001670837 -0.058830559253692627
0.55959475040435791 -0.211045876145362854 -0.213210448622703552
-0.247194036841392517 0.0145571324974298477 -0.14609295129776001
0.3508891761302948 -0.290296167135238647 -0.376867800951004028
-0.049879755824804306 -0.264194637537002563 -0.376610130071640015
0.600312948226928711 -0.154997900128364563 -0.108682848513126373
0.406808704137802124 -0.293947964906692505 -0.392978250980377197
0.251895695924758911 -0.256192773580551147 -0.337827086448669434
0.451742291450500488 -0.219493240118026733 -0.263157159090042114
0.012259235605597496 -0.255311846733093262 -0.374263912439346313
0.209738388657569885 -0.258766531944274902 -0.393327534198760986
0.571418821811676025 -0.190288782119750977 -0.145537659525871277
-0.0268161892890930176 -0.239083126187324524 -0.392591595649719238
-0.225573882460594177 0.00250548264011740685 -0.216390952467918396
-0.171478614211082458 0.118077002465724945 -0.0914264246821403503
-0.224834084510803223 0.0761817395687103271 -0.164177298545837402
-0.232041075825691223 0.0778725147247314453 -0.10690288245677948
-0.235473841428756714 0.00962735060602426529 0.0395479016005992889
-0.109858959913253784 0.0994042977690696716 -0.0476770997047424316
-0.168714612722396851 -0.105649098753929138 -0.306748658418655396
0.380321890115737915 -0.269516944885253906 -0.365086227655410767
-0.249198630452156067 0.00599597394466400146 -0.140578672289848328
0.341107457876205444 -0.284951448440551758 -0.341356754302978516
-0.188027828931808472 -0.157743006944656372 -0.315597504377365112
-0.169746935367584229 0.179570868611335754 0.101011820137500763
-0.250682145357131958 -0.0869181305170059204 -0.229898720979690552
0.256329178810119629 -0.302317529916763306 -0.32725602388381958
-0.210416704416275024 -0.0962212234735488892 -0.239321514964103699
-0.35596129298210144 -0.168594732880592346 0.239899829030036926
0.177977338433265686 -0.246715083718299866 -0.38227379322052002
0.0267174374312162399 -0.246872946619987488 -0.404474645853042603
-0.254112035036087036 -0.03624715656042099 0.0676674097776412964
0.200074449181556702 -0.226261615753173828 -0.35983923077583313
-0.338807493448257446 -0.14960615336894989 0.228960782289505005
0.448924005031585693 -0.208416223526000977 -0.290156453847885132
-0.202718615531921387 0.0465305820107460022 -0.105139225721359253
-0.199409633874893188 -0.0587295815348625183 -0.215290248394012451
0.481446385383605957 -0.209295019507408142 -0.258167505264282227
0.568327248096466064 -0.236071065068244934 -0.213886305689811707
-0.297217607498168945 -0.0996925011277198792 0.137985885143280029
-0.296240419149398804 -0.159639149904251099 0.236870139837265015
0.602395832538604736 -0.193913906812667847 -0.136603891849517822
-0.222013935446739197 0.0452796407043933868 -0.117194801568984985
-0.0877587571740150452 0.140023812651634216 0.00505178933963179588
0.313355416059494019 -0.259259700775146484 -0.317517399787902832
-0.172304973006248474 0.0435528047382831573 -0.204485535621643066
0.518867731094360352 -0.234455868601799011 -0.257856249809265137
-0.108094766736030579 -0.188787490129470825 -0.332178354263305664
-0.0942713245749473572 0.138187095522880554 -0.00105909723788499832
-0.183629050850868225 -0.0132144754752516747 -0.22331903874874115
-0.147802531719207764 -0.157293632626533508 -0.383138269186019897
-0.256351053714752197 0.005199420265853405 -0.0360050797462463379
0.495966672897338867 -0.234991356730461121 -0.18132840096950531
-0.225043624639511108 -0.00664179073646664619 0.0863009989261627197
0.502707421779632568 -0.245885804295539856 -0.247876107692718506
-0.173196256160736084 0.0853677764534950256 -0.0901826471090316772
0.58578956127166748 -0.120398595929145813 -0.128192722797393799
0.560461103916168213 -0.268866509199142456 -0.221945703029632568
-0.238095074892044067 0.0860935747623443604 -0.141083046793937683
0.419025778770446777 -0.257276266813278198 -0.337689191102981567
-0.270571738481521606 0.0046934373676776886 0.0610237456858158112
0.531836748123168945 -0.261087745428085327 -0.265458345413208008
-0.164869144558906555 0.248303234577178955 0.163493633270263672
-0.218230098485946655 -0.077767297625541687 -0.248749688267707825
-0.145871609449386597 0.178309813141822815 0.0343732871115207672
-0.348304867744445801 -0.191530197858810425 0.261020421981811523
0.493982166051864624 -0.249996587634086609 -0.212943866848945618
0.340388596057891846 -0.26138007640838623 -0.333007365465164185
-0.172528505325317383 0.179122015833854675 0.0711825266480445862
-0.254060149192810059 0.116541042923927307 -0.0775575414299964905
0.57488936185836792 -0.213383600115776062 -0.15735548734664917
0.209835648536682129 -0.214484855532646179 -0.330326825380325317
-0.257130742073059082 0.0506659857928752899 0.0139441555365920067
0.379787951707839966 -0.223430603742599487 -0.329711288213729858
-0.217939242720603943 0.0824530050158500671 -0.064732186496257782
0.240949779748916626 -0.230984091758728027 -0.357044041156768799
-0.0719712525606155396 -0.212503060698509216 -0.327354162931442261
-0.207565531134605408 0.0372371524572372437 -0.021411459892988205
-0.293676972389221191 -0.0805786699056625366 0.177535697817802429
-0.212960168719291687 0.0513350144028663635 -0.0606207698583602905
-0.319164186716079712 -0.139734268188476562 0.25237041711807251
0.573888480663299561 -0.175531297922134399 -0.136964514851570129
0.493264108896255493 -0.238573029637336731 -0.289319783449172974
0.45782884955406189 -0.252447783946990967 -0.315160065889358521
-0.189431965351104736 0.162776052951812744 0.105641953647136688
-0.286602884531021118 -0.0156433936208486557 0.121215410530567169
-0.20062410831451416 -0.0431553609669208527 -0.17982541024684906
0.257815659046173096 -0.229275032877922058 -0.344862371683120728
0.52313154935836792 -0.206514045596122742 -0.189631953835487366
0.297832906246185303 -0.256254523992538452 -0.33303561806678772
-0.151516586542129517 -0.0316656492650508881 -0.220116451382637024
0.59774327278137207 -0.178518354892730713 -0.172276780009269714
0.0739922970533370972 -0.220667406916618347 -0.370455831289291382
-0.1069955974817276 0.138951748609542847 -0.0196831896901130676
-0.293402761220932007 -0.125504776835441589 0.190679848194122314
-0.331716746091842651 -0.189970135688781738 0.238108068704605103
0.515651047229766846 -0.247761249542236328 -0.237954959273338318
-0.190170273184776306 0.00239636958576738834 -0.214864909648895264
-0.181608542799949646 -0.0582846067845821381 -0.298930078744888306
-0.0966181308031082153 -0.17396274209022522 -0.325617760419845581
-0.193497166037559509 -0.0922416523098945618 -0.281563788652420044
-0.184021621942520142 -0.0298323240131139755 -0.200840175151824951
0.521889746189117432 -0.23629443347454071 -0.174835473299026489
0.391257315874099731 -0.219821467995643616 -0.370049536228179932
-0.245437011122703552 -0.0236125774681568146 0.0771849900484085083
-0.373407244682312012 -0.174302771687507629 0.2702464759349823
-0.214203998446464539 0.185215696692466736 0.113326132297515869
0.358559727668762207 -0.254720091819763184 -0.398657143115997314
-0.151788979768753052 0.203239351511001587 0.0372179709374904633
-0.176993831992149353 -0.0754785686731338501 -0.250229150056838989
0.405060321092605591 -0.244493141770362854 -0.371387511491775513
-0.213674247264862061 0.0738363936543464661 -0.164095059037208557
-0.190158218145370483 0.0402330756187438965 -0.163923472166061401
0.651853203773498535 -0.144990146160125732 -0.124634929001331329
-0.247276067733764648 0.0547973252832889557 -0.0503987856209278107
-0.167083680629730225 0.188740625977516174 0.0601842626929283142
-0.152958840131759644 0.157444864511489868 0.0487960986793041229
-0.175733640789985657 -0.0257358625531196594 -0.235082477331161499
-0.191439524292945862 -0.0457558818161487579 -0.222914502024650574
-0.138219892978668213 -0.179386153817176819 -0.318548738956451416
-0.164480850100517273 -0.0716881528496742249 -0.257934331893920898
-0.0097688622772693634 -0.21869225800037384 -0.380283564329147339
-0.109251946210861206 0.194028139114379883 0.01128420140594244
0.377471208572387695 -0.223406597971916199 -0.385874152183532715
-0.236185371875762939 -0.0120943756774067879 0.0733752697706222534
0.562844634056091309 -0.196289867162704468 -0.188776344060897827
0.550714671611785889 -0.213844731450080872 -0.167366519570350647
-0.0801111385226249695 -0.20991457998752594 -0.402342766523361206
-0.265617698431015015 -0.0329179391264915466 0.0705111920833587646
0.232696175575256348 -0.215528905391693115 -0.345251709222793579
-0.144971266388893127 -0.135929420590400696 -0.325893491506576538
0.377364754676818848 -0.234656885266304016 -0.356596022844314575
-0.261329829692840576 -0.0600593239068984985 0.061413303017616272
-0.314011543989181519 -0.107022345066070557 0.182569161057472229
0.137857630848884583 -0.21100984513759613 -0.381265610456466675
-0.318351536989212036 -0.13578014075756073 0.222515180706977844
-0.19614844024181366 -0.043811701238155365 -0.28699958324432373
-0.423839837312698364 -0.179387450218200684 0.280546188354492188
0.598284125328063965 -0.217132970690727234 -0.199616461992263794
-0.261950045824050903 -0.109063267707824707 -0.278581202030181885
-0.199571996927261353 0.0410953164100646973 -0.155661717057228088
0.361014664173126221 -0.235724359750747681 -0.391974538564682007
-0.233940094709396362 0.0136584006249904633 -0.193219318985939026
-0.194665879011154175 -0.143449485301971436 -0.277670979499816895
-0.20824103057384491 0.0562873184680938721 -0.121018059551715851
-0.0898046419024467468 0.133794695138931274 -0.031335778534412384
-0.196199983358383179 0.0800225213170051575 -0.0936811864376068115
-0.277730345726013184 -0.0985063686966896057 0.18821968138217926
-0.00803379621356725693 -0.250609517097473145 -0.328409701585769653
-0.151855066418647766 0.112165868282318115 -0.0557294003665447235
0.522349417209625244 -0.191814392805099487 -0.172288745641708374
0.179066240787506104 -0.24604642391204834 -0.35819128155708313
-0.181461140513420105 -0.0688900873064994812 -0.2575664222240448
-0.251886636018753052 -0.0282516367733478546 -0.211135119199752808
0.264468282461166382 -0.269134283065795898 -0.401674747467041016
-0.240548029541969299 0.0608202740550041199 -0.0307805333286523819
-0.183083727955818176 -0.096983104944229126 -0.261665225028991699
-0.160178691148757935 -0.0806345567107200623 -0.264909744262695312
-0.127609148621559143 0.0867025330662727356 -0.0710082352161407471
-0.306044816970825195 -0.087887980043888092 0.166577383875846863
0.108103096485137939 -0.234390184283256531 -0.384490787982940674
-0.199706241488456726 -0.0896903276443481445 -0.300986558198928833
0.375595033168792725 -0.249986723065376282 -0.274230241775512695
-0.155080363154411316 0.0389965362846851349 -0.132015049457550049
0.144408836960792542 -0.278297722339630127 -0.372072964906692505
-0.257592827081680298 -0.00865587498992681503 0.0605972073972225189
-0.188480079174041748 0.0629882439970970154 -0.0333212241530418396
-0.219261720776557922 0.0416273213922977448 -0.0946823135018348694
-0.303130298852920532 -0.105531580746173859 0.168418601155281067
-0.276688933372497559 -0.000741457566618919373 0.0631129741668701172
0.238072663545608521 -0.233895793557167053 -0.361103951930999756
-0.269111156463623047 -0.0561891831457614899 0.089192517101764679
-0.0929427593946456909 -0.25895044207572937 -0.362085908651351929
-0.317945390939712524 -0.153063938021659851 0.205841302871704102
0.445053309202194214 -0.244732886552810669 -0.276215612888336182
-0.161817446351051331 0.174981221556663513 0.0971555784344673157
0.569091379642486572 -0.125610381364822388 -0.107016459107398987
-0.0949765518307685852 -0.21557338535785675 -0.399210602045059204
0.316254228353500366 -0.257177859544754028 -0.329347223043441772
0.547947287559509277 -0.181433305144309998 -0.223811835050582886
0.389061063528060913 -0.225814789533615112 -0.284224957227706909
0.598543465137481689 -0.173210754990577698 -0.110992394387722015
0.522493720054626465 -0.235567912459373474 -0.252571552991867065
-0.238032445311546326 -0.0252458937466144562 0.107798628509044647
0.660805225372314453 -0.141106948256492615 -0.123231425881385803
-0.132357493042945862 0.106034226715564728 -0.070657581090927124
-0.317187726497650146 -0.0834964662790298462 0.170997068285942078
-0.263067454099655151 0.0253040175884962082 0.0237629842013120651
-0.0345909781754016876 -0.225352495908737183 -0.358739942312240601
-0.116924017667770386 0.151508957147598267 0.0322116240859031677
-0.0793317854404449463 0.154348641633987427 -0.0293805785477161407
-0.334753662347793579 -0.176342874765396118 0.294371694326400757
-0.234031006693840027 -0.0631296485662460327 0.0574668571352958679
-0.203185632824897766 -0.000328188849380239844 -0.20759110152721405
0.52123183012008667 -0.167680427432060242 -0.185431748628616333
0.373227775096893311 -0.270827800035476685 -0.30497404932975769
-0.248780906200408936 0.0392320007085800171 0.0405662544071674347
0.538861751556396484 -0.247673243284225464 -0.2906913161277771
-0.222516551613807678 -0.00767108192667365074 -0.161648035049438477
-0.0214149896055459976 -0.206632480025291443 -0.366141706705093384
0.575875699520111084 -0.236209124326705933 -0.156523436307907104
-0.377783149480819702 -0.25742870569229126 0.328960269689559937
-0.242580384016036987 0.0511970482766628265 -0.0358971729874610901
-0.108280710875988007 0.156233683228492737 -0.0183734428137540817
-0.255838930606842041 -0.00760222971439361572 0.0508047379553318024
-0.127268001437187195 -0.152613922953605652 -0.322988390922546387
-0.307601660490036011 -0.133492544293403625 0.211831599473953247
0.107036858797073364 -0.271671682596206665 -0.378205835819244385
0.194020822644233704 -0.298922121524810791 -0.394113034009933472
0.550371229648590088 -0.167307406663894653 -0.133237451314926147
0.343717128038406372 -0.294148355722427368 -0.388038039207458496
0.172798290848731995 -0.282774269580841064 -0.376646190881729126
-0.234146147966384888 0.000475605600513517857 -0.213827595114707947
-0.287299275398254395 -0.0141774974763393402 -0.149988129734992981
-0.109272442758083344 -0.163969099521636963 -0.352047890424728394
-0.214758634567260742 -0.0308341886848211288 -0.265082806348800659
0.623845100402832031 -0.140913978219032288 -0.137746661901473999
-0.187180191278457642 -0.115613736212253571 -0.278463125228881836
-0.243775561451911926 -0.0185801200568675995 0.0708256661891937256
0.356816619634628296 -0.249763891100883484 -0.335655182600021362
0.543979287147521973 -0.194285094738006592 -0.130286335945129395
-0.204736486077308655 0.066547587513923645 -0.0531780235469341278
-0.158594667911529541 -0.00487422989681363106 -0.267167955636978149
-0.295156478881835938 -0.0784019976854324341 0.167550727725028992
0.53268277645111084 -0.193140268325805664 -0.219687581062316895
-0.28288385272026062 -0.108523286879062653 0.186727374792098999
0.507277011871337891 -0.243567660450935364 -0.185480952262878418
-0.191208302974700928 -0.0797134637832641602 -0.265353143215179443
-0.197557225823402405 0.0468506291508674622 -0.0997375324368476868
0.120779037475585938 -0.24645744264125824 -0.372891724109649658
-0.144300028681755066 -0.166378065943717957 -0.315665483474731445
0.551476418972015381 -0.106596335768699646 -0.105442576110363007
0.545001745223999023 -0.226045563817024231 -0.220631122589111328
0.619789361953735352 -0.164748281240463257 -0.150884106755256653
-0.0843083709478378296 -0.211961939930915833 -0.354784011840820312
0.196646004915237427 -0.262276977300643921 -0.34626278281211853
0.270035892724990845 -0.32123449444770813 -0.392320930957794189
0.555995345115661621 -0.199508160352706909 -0.181941479444503784
-0.286725848913192749 -0.0979021564126014709 0.150674536824226379
-0.0504218488931655884 -0.189416423439979553 -0.342739582061767578
0.550356030464172363 -0.234499052166938782 -0.171330362558364868
-0.175619930028915405 -0.0760837197303771973 -0.248375892639160156
0.00457028858363628387 -0.221246391534805298 -0.35429266095161438
-0.216465950012207031 -0.00248970929533243179 -0.217132151126861572
-0.133254721760749817 0.110361769795417786 -0.0599144436419010162
0.589501738548278809 -0.196183472871780396 -0.134822458028793335
-0.289050370454788208 -0.0862662270665168762 0.130467474460601807
-0.220655560493469238 0.0340320281684398651 -0.10155969113111496
-0.103017948567867279 0.128181010484695435 -0.00481913518160581589
0.380334198474884033 -0.262907117605209351 -0.33614465594291687
-0.316975653171539307 -0.114676438271999359 0.18727971613407135
0.0822535157203674316 -0.231790721416473389 -0.406100451946258545
-0.147167369723320007 -0.171213850378990173 -0.325136065483093262
0.571676790714263916 -0.223595961928367615 -0.225685417652130127
-0.151107519865036011 -0.0375524722039699554 -0.187866151332855225
-0.0758843496441841125 -0.221960067749023438 -0.338012337684631348
-0.0786304846405982971 0.193324923515319824 0.0521444939076900482
0.55721515417098999 -0.238410577178001404 -0.230559661984443665
-0.233950585126876831 0.105400584638118744 -0.0998172983527183533
0.50920337438583374 -0.247217312455177307 -0.280442774295806885
-0.205600008368492126 -0.0104298731312155724 -0.284195542335510254
-0.220122337341308594 0.0682363361120223999 -0.0544187165796756744
-0.240226656198501587 0.0269312597811222076 0.0385201051831245422
-0.363795280456542969 -0.176669090986251831 0.30711972713470459
-0.16040356457233429 -0.207039326429367065 -0.316904842853546143
-0.178654313087463379 -0.146417036652565002 -0.32356792688369751
-0.0136424768716096878 -0.243819877505302429 -0.348663479089736938
-0.26696506142616272 0.0382276102900505066 -0.000964122184086591005
0.230298087000846863 -0.255128204822540283 -0.321560889482498169
0.341131150722503662 -0.22284303605556488 -0.358783513307571411
0.501043140888214111 -0.233340531587600708 -0.241019740700721741
-0.190605655312538147 0.0028817509301006794 -0.171722427010536194
-0.231663405895233154 0.0368679836392402649 -0.0802597030997276306
-0.182710453867912292 -0.112302981317043304 -0.287344068288803101
-0.210912689566612244 0.0843491852283477783 -0.0900421366095542908
-0.25650256872177124 0.0309527423232793808 0.0026669125072658062
0.502019166946411133 -0.24731050431728363 -0.293925076723098755
0.125733375549316406 -0.231194064021110535 -0.349405437707901001
-0.19302743673324585 0.0978327244520187378 -0.112774796783924103
-0.382347673177719116 -0.23835030198097229 0.332098484039306641
-0.206950649619102478 -0.032919909805059433 -0.215271010994911194
-0.359985858201980591 -0.223023384809494019 0.331192225217819214
-0.307590693235397339 -0.119527526199817657 0.147918954491615295
0.247205659747123718 -0.250274986028671265 -0.398398727178573608
-0.126609161496162415 0.159806057810783386 0.0284517146646976471
-0.279316097497940063 0.0192511659115552902 0.0506994612514972687
0.207365930080413818 -0.239509031176567078 -0.362509071826934814
-0.11980186402797699 -0.0718046277761459351 -0.253657013177871704
0.468586474657058716 -0.228379309177398682 -0.237628698348999023
0.405109971761703491 -0.262875974178314209 -0.281853288412094116
-0.205495044589042664 -0.0721942037343978882 -0.259015947580337524
-0.151683792471885681 0.244823426008224487 0.104692347347736359
-0.108762554824352264 0.225987344980239868 0.102778300642967224
0.529789268970489502 -0.248643159866333008 -0.24439394474029541
-0.0965731069445610046 0.132718697190284729 -0.0236069001257419586
-0.0152526991441845894 -0.231169894337654114 -0.384961366653442383
0.351830154657363892 -0.278832525014877319 -0.380881667137145996
-0.178728103637695312 -0.05870036780834198 -0.271165013313293457
-0.0753206759691238403 0.212546020746231079 0.0786805376410484314
0.395401209592819214 -0.23766009509563446 -0.288874238729476929
0.452669858932495117 -0.256522119045257568 -0.311457574367523193
-0.252078592777252197 0.0788500085473060608 -0.149950742721557617
-0.222934097051620483 0.068347148597240448 -0.11527349054813385
0.151685059070587158 -0.228420630097389221 -0.392110317945480347
0.508866310119628906 -0.245777755975723267 -0.273458629846572876
-0.155154109001159668 0.139636099338531494 -0.038552556186914444
-0.330274254083633423 -0.0959208980202674866 0.157715588808059692
0.226073294878005981 -0.262058377265930176 -0.417700529098510742
-0.240898504853248596 0.0469114296138286591 -0.017266400158405304
-0.110838018357753754 -0.164123430848121643 -0.30618441104888916
0.365797549486160278 -0.254487603902816772 -0.352516382932662964
-0.202096164226531982 0.0472567789256572723 -0.117349438369274139
-0.147365853190422058 0.203719630837440491 0.157675713300704956
0.558391213417053223 -0.207607164978981018 -0.167344316840171814
-0.16591198742389679 -0.14670117199420929 -0.30977177619934082
-0.288849413394927979 -0.119836315512657166 0.193438500165939331
-0.3982563316822052 -0.232350185513496399 0.330722391605377197
0.122677028179168701 -0.236095413565635681 -0.375633209943771362
0.526570141315460205 -0.21904166042804718 -0.196624696254730225
-0.313050985336303711 -0.179464653134346008 0.229421377182006836
0.529638528823852539 -0.209139168262481689 -0.167802378535270691
-0.248213157057762146 -0.0420401096343994141 0.0615696683526039124
0.432857483625411987 -0.25522691011428833 -0.287847250699996948
-0.208152845501899719 -0.0242622643709182739 -0.195190384984016418
-0.179649785161018372 0.0222159642726182938 -0.126165613532066345
-0.300530433654785156 -0.0991535112261772156 0.124738231301307678
-0.00824009068310260773 -0.232862338423728943 -0.364943832159042358
-0.104685589671134949 0.123823098838329315 -0.0132953207939863205
0.555055975914001465 -0.224160104990005493 -0.218992695212364197
-0.206820935010910034 -0.0691408887505531311 -0.242670401930809021
0.469242215156555176 -0.229427993297576904 -0.262520551681518555
0.165737435221672058 -0.209346950054168701 -0.361911952495574951
0.317850828170776367 -0.242299571633338928 -0.353107273578643799
-0.282465994358062744 -0.090999796986579895 0.15512712299823761
-0.169595658779144287 0.211016252636909485 0.177851364016532898
-0.212050959467887878 -0.0144602367654442787 -0.209720030426979065
-0.10599759966135025 -0.214685291051864624 -0.362993597984313965
-0.0631673112511634827 -0.247560828924179077 -0.38401263952255249
-0.304278284311294556 -0.0949307605624198914 0.114826440811157227
0.577690303325653076 -0.176880761981010437 -0.189931824803352356
-0.247315824031829834 -0.00818534847348928452 -0.203308045864105225
0.279013633728027344 -0.277467519044876099 -0.343862086534500122
-0.214803710579872131 0.00232336670160293579 -0.191967889666557312
-0.0143018979579210281 -0.267010718584060669 -0.391779929399490356
-0.190525591373443604 0.0834050178527832031 -0.0513839684426784515
-0.227826178073883057 0.0760898888111114502 -0.031595427542924881
-0.0378929004073143005 -0.278646320104598999 -0.347279369831085205
0.547157883644104004 -0.253733307123184204 -0.25828474760055542
-0.215837523341178894 0.0482854284346103668 -0.056584533303976059
-0.326244175434112549 -0.172502696514129639 0.24294087290763855
0.177617773413658142 -0.230778515338897705 -0.410161077976226807
-0.192692533135414124 0.0732203871011734009 -0.103473708033561707
-0.165029659867286682 0.206447362899780273 0.181877046823501587
-0.239307388663291931 0.163682684302330017 0.167173370718955994
0.49181210994720459 -0.230448335409164429 -0.260640949010848999
-0.220753416419029236 -0.0328364260494709015 -0.22425137460231781
0.440172076225280762 -0.278519093990325928 -0.292039483785629272
-0.209891602396965027 0.0630203709006309509 -0.0660200119018554688
0.143256083130836487 -0.240360677242279053 -0.384757757186889648
0.400962114334106445 -0.279385745525360107 -0.310623705387115479
-0.13079562783241272 0.0949126631021499634 -0.0709899216890335083
0.610083460807800293 -0.229384958744049072 -0.196281448006629944
0.213931083679199219 -0.230512484908103943 -0.350210040807723999
-0.120861291885375977 0.24604015052318573 0.0747238174080848694
-0.142981335520744324 -0.165287330746650696 -0.312582135200500488
0.582708120346069336 -0.195099607110023499 -0.253318190574645996
0.325903266668319702 -0.254070967435836792 -0.333389967679977417
0.457630127668380737 -0.206197530031204224 -0.327268809080123901
0.664072513580322266 -0.180772975087165833 -0.150527715682983398
-0.211257502436637878 -0.00124001118820160627 -0.221376523375511169
0.232375368475914001 -0.224812358617782593 -0.360127925872802734
-0.153032392263412476 0.229519695043563843 0.166238561272621155
-0.309561967849731445 -0.114355787634849548 0.158871874213218689
-0.227104246616363525 -0.123849861323833466 -0.313120096921920776
-0.242580309510231018 0.0874750688672065735 -0.112961903214454651
0.602937459945678711 -0.166292577981948853 -0.226254314184188843
0.443756282329559326 -0.253335058689117432 -0.313583880662918091
-0.188786745071411133 -0.0839116796851158142 -0.282089740037918091
-0.350800931453704834 -0.209216028451919556 0.291390120983123779
0.57768714427947998 -0.248704925179481506 -0.207136467099189758
-0.211431458592414856 0.0246543996036052704 -0.179170906543731689
-0.230679035186767578 0.0783526450395584106 -0.0723809227347373962
0.448412716388702393 -0.186034426093101501 -0.290531575679779053
-0.227729246020317078 0.0193314850330352783 -0.166477575898170471
0.244365394115447998 -0.263346165418624878 -0.348374485969543457
0.442286521196365356 -0.26237785816192627 -0.28192603588104248
-0.331256389617919922 -0.127538591623306274 0.10420653223991394
-0.305659174919128418 -0.106961451470851898 0.154916584491729736
-0.228528931736946106 -0.0228114333003759384 0.0845533683896064758
0.298012107610702515 -0.291598647832870483 -0.348575949668884277
-0.246941670775413513 -0.031657777726650238 0.0417948812246322632
-0.128315821290016174 0.133529797196388245 -0.0355579927563667297
0.148224785923957825 -0.239948377013206482 -0.357430815696716309
-0.351656556129455566 -0.252745777368545532 0.345954686403274536
-0.0906196460127830505 0.133356258273124695 -0.0472245700657367706
-0.101488709449768066 0.151724830269813538 -0.0124480575323104858
0.116102725267410278 -0.210771709680557251 -0.397024840116500854
-0.196229457855224609 -0.0851028412580490112 -0.285465359687805176
0.531578540802001953 -0.218741819262504578 -0.191232115030288696
0.561686038970947266 -0.21943528950214386 -0.196292400360107422
-0.209687098860740662 0.0331854075193405151 -0.153282210230827332
-0.253911137580871582 -0.00664726225659251213 0.0700783580541610718
-0.271891266107559204 -0.0963023900985717773 0.108000300824642181
0.482283443212509155 -0.195249468088150024 -0.2594870924949646
0.605020105838775635 -0.129041105508804321 -0.133426234126091003
0.587781906127929688 -0.167689904570579529 -0.144947439432144165
-0.192652687430381775 0.227911397814750671 0.188573911786079407
-0.107739843428134918 0.169916167855262756 -0.0169784612953662872
-0.218392759561538696 -0.0576847381889820099 -0.279087603092193604
-0.026738487184047699 -0.242965608835220337 -0.396455943584442139
-0.0936041250824928284 0.166836276650428772 -0.000359142693923786283
0.345766186714172363 -0.269853591918945312 -0.35068938136100769
-0.193812936544418335 -0.0146660488098859787 -0.196988925337791443
0.592485547065734863 -0.151539266109466553 -0.129670709371566772
0.174399092793464661 -0.251380205154418945 -0.363400250673294067
-0.0638125687837600708 -0.248938277363777161 -0.327560633420944214
-0.285172998905181885 -0.0688327625393867493 0.155100986361503601
-0.12237095832824707 0.09798450767993927 -0.0943073928356170654
-0.154940605163574219 -0.0856971889734268188 -0.286687344312667847
-0.170748576521873474 0.181591212749481201 0.0974299684166908264
-0.180985033512115479 -0.0513819791376590729 -0.236308366060256958
-0.295221120119094849 0.0371739491820335388 -0.141822829842567444
-0.0455697737634181976 0.19970916211605072 0.0104786232113838196
0.605253815650939941 -0.188515350222587585 -0.147008776664733887
-0.0701700523495674133 0.191913366317749023 0.0251398514956235886
0.416872382164001465 -0.242598608136177063 -0.348748505115509033
-0.0890501290559768677 0.137255623936653137 -0.011195426806807518
-0.108458712697029114 0.170061796903610229 -0.0157984457910060883
0.598054051399230957 -0.162767946720123291 -0.190974801778793335
-0.277457445859909058 -0.125552564859390259 0.171223863959312439
-0.150039032101631165 -0.150634735822677612 -0.337571382522583008
0.549750924110412598 -0.22112332284450531 -0.151000365614891052
0.482261061668395996 -0.232263535261154175 -0.288496017456054688
-0.176292821764945984 -0.133188501000404358 -0.29573589563369751
-0.220670431852340698 -0.0512173399329185486 -0.276680797338485718
-0.309087276458740234 -0.089756794273853302 0.136269927024841309
-0.0975365117192268372 0.124303154647350311 -0.0631315559148788452
0.588387370109558105 -0.0945259332656860352 -0.112733080983161926
-0.204392731189727783 -0.0500095449388027191 -0.257268190383911133
-0.222239658236503601 0.0761384144425392151 -0.0803675204515457153
0.327005594968795776 -0.272865235805511475 -0.332937777042388916
-0.272182881832122803 -0.0783552601933479309 -0.244685843586921692
0.595031082630157471 -0.118931874632835388 -0.125542983412742615
-0.226034998893737793 0.0833040252327919006 -0.110263444483280182
0.480617672204971313 -0.272141635417938232 -0.290689736604690552
-0.271261721849441528 -0.0290871560573577881 0.0898063629865646362
0.573943853378295898 -0.18575151264667511 -0.125361993908882141
-0.17022743821144104 0.159414798021316528 0.0859153047204017639
0.470889031887054443 -0.253480672836303711 -0.240002408623695374
0.54255753755569458 -0.103103972971439362 -0.128003016114234924
0.605629086494445801 -0.180285260081291199 -0.147703111171722412
-0.262408345937728882 0.0179585665464401245 0.0620211698114871979
-0.234104424715042114 -0.0349210426211357117 -0.19553077220916748
-0.293988049030303955 -0.0762643441557884216 0.112366326153278351
-0.142809763550758362 -0.207715302705764771 -0.34368559718132019
-0.215209066867828369 0.164942890405654907 0.154735654592514038
-0.0917919501662254333 -0.184291765093803406 -0.398737639188766479
-0.16246369481086731 0.02909894660115242 -0.107105083763599396
0.032299041748046875 -0.204463109374046326 -0.376253306865692139
-0.321660339832305908 -0.118869021534919739 0.213311493396759033
0.00256051914766430855 -0.281265437602996826 -0.370452284812927246
0.0797233358025550842 -0.206980124115943909 -0.380788743495941162
-0.114922277629375458 0.21911872923374176 0.00621185172349214554
-0.178528293967247009 -0.124478958547115326 -0.337681233882904053
0.251479655504226685 -0.263440191745758057 -0.406556963920593262
-0.247836634516716003 0.114515431225299835 -0.0654733255505561829
-0.297410398721694946 -0.0802290141582489014 0.11049584299325943
0.378055572509765625 -0.252914488315582275 -0.364083409309387207
0.389734923839569092 -0.255655169486999512 -0.305336564779281616
-0.215072333812713623 -0.146728992462158203 -0.340093255043029785
-0.252975016832351685 0.0288981478661298752 -0.0352126695215702057
-0.134327471256256104 0.105584748089313507 -0.0937819778919219971
-0.175535663962364197 -0.0954750329256057739 -0.290935784578323364
-0.312233537435531616 -0.0687888339161872864 0.0843147709965705872
0.563559412956237793 -0.244211345911026001 -0.257765382528305054
0.14808085560798645 -0.260756403207778931 -0.359736114740371704
-0.154978185892105103 0.0722358152270317078 -0.108560904860496521
-0.109533265233039856 0.15479665994644165 -0.0187086332589387894
-0.141858369112014771 0.0959263965487480164 -0.0918182581663131714
0.431937277317047119 -0.266662925481796265 -0.293562084436416626
0.436404436826705933 -0.274294793605804443 -0.291495770215988159
-0.186307907104492188 0.130570411682128906 -0.0549665689468383789
-0.224270552396774292 -0.0288850087672472 -0.234036415815353394
0.551031947135925293 -0.190150916576385498 -0.0853440836071968079
-0.18226940929889679 -0.0764369368553161621 -0.271042168140411377
-0.193011730909347534 0.000557712512090802193 -0.219699278473854065
0.503926873207092285 -0.234354808926582336 -0.237511515617370605
-0.284109532833099365 0.0360040143132209778 0.0278122443705797195
0.036845572292804718 -0.201001882553100586 -0.384713470935821533
0.599931716918945312 -0.153280764818191528 -0.117813877761363983
-0.126523956656455994 -0.198430925607681274 -0.331612080335617065
-0.221859917044639587 0.04547075554728508 -0.109375648200511932
0.558192789554595947 -0.204081475734710693 -0.234715402126312256
-0.172614142298698425 0.0924350172281265259 -0.0938003957271575928
0.427763998508453369 -0.267447561025619507 -0.36288750171661377
-0.279524117708206177 -0.0769017934799194336 0.105907998979091644
-0.170835182070732117 -0.129531100392341614 -0.281316161155700684
-0.17136847972869873 0.0484567433595657349 -0.0910354852676391602
-0.228591278195381165 0.0417046621441841125 -0.0606982298195362091
-0.23434777557849884 0.0353330224752426147 -0.180835947394371033
0.442086905241012573 -0.266382962465286255 -0.309870004653930664
-0.227392658591270447 0.0602472648024559021 -0.0820858702063560486
-0.165939897298812866 -0.197762280702590942 -0.349652856588363647
0.275542467832565308 -0.267625540494918823 -0.353125959634780884
0.459706813097000122 -0.246022015810012817 -0.316841036081314087
-0.172689631581306458 0.171795427799224854 0.0825865492224693298
-0.249078884720802307 0.0682690218091011047 -0.0412014350295066833
-0.266255050897598267 -0.0587219893932342529 0.122669033706188202
-0.240247651934623718 0.0546304769814014435 0.00913751870393753052
0.0244738645851612091 -0.228938102722167969 -0.328076034784317017
-0.235176354646682739 0.0665791332721710205 -0.163276374340057373
0.527174472808837891 -0.23518042266368866 -0.291073381900787354
-0.0881973206996917725 -0.178738310933113098 -0.375754624605178833
0.483002603054046631 -0.208665937185287476 -0.260307073593139648
-0.210536226630210876 0.045159023255109787 -0.0199862495064735413
-0.186930015683174133 -0.114398755133152008 -0.352371960878372192
-0.128054201602935791 -0.152229726314544678 -0.316265761852264404
-0.193126842379570007 0.0678502991795539856 -0.0880020186305046082
-0.182322025299072266 0.0701691508293151855 -0.0575060583651065826
-0.187687978148460388 0.16389349102973938 0.130357339978218079
-0.157087787985801697 0.0414135530591011047 -0.136255756020545959
-0.110468663275241852 -0.212248966097831726 -0.350954771041870117
-0.253723055124282837 0.00586869427934288979 0.0593824498355388641
-0.22436387836933136 0.0474291592836380005 0.0201549604535102844
0.247565910220146179 -0.252733826637268066 -0.367884635925292969
-0.242498874664306641 -0.070904850959777832 -0.235767364501953125
-0.231501832604408264 0.048709820955991745 -0.0391536727547645569
-0.264714896678924561 0.0094730667769908905 -0.231102481484413147
-0.308996230363845825 -0.0998667702078819275 0.150984153151512146
0.476584404706954956 -0.258074283599853516 -0.219695493578910828
-0.228263050317764282 0.154712438583374023 0.132543504238128662
0.538774609565734863 -0.247063800692558289 -0.214150920510292053
-0.115565113723278046 0.191877305507659912 0.00426307134330272675
-0.264514416456222534 -0.0668115168809890747 0.0809617266058921814
-0.144994199275970459 0.162268191576004028 0.0393727496266365051
-0.244689613580703735 0.0563880391418933868 -0.0551313161849975586
0.573741674423217773 -0.16284729540348053 -0.157645806670188904
0.485145986080169678 -0.225679323077201843 -0.251676470041275024
0.349026203155517578 -0.289059549570083618 -0.383394479751586914
-0.337898731231689453 -0.144472777843475342 0.233476802706718445
-0.211356058716773987 0.055980633944272995 -0.106583826243877411
-0.107552915811538696 -0.199158832430839539 -0.330237805843353271
