ply
format ascii 1.0
element vertex 730
comment vertices
property float x
property float y
property float z
end_header
0.00869499053806066513 -0.138220742344856262 -0.418691277503967285
0.477099776268005371 -0.0177055336534976959 -0.0936341956257820129
0.26920926570892334 -0.16117432713508606 -0.308083623647689819
0.269457787275314331 -0.133730381727218628 -0.300370872020721436
0.304292470216751099 -0.137553274631500244 -0.336097568273544312
0.344624221324920654 -0.125697344541549683 -0.312368243932723999
0.088425174355506897 -0.144539013504981995 -0.424429148435592651
0.413514465093612671 -0.0898571312427520752 -0.176384240388870239
0.420327752828598022 -0.0900548920035362244 -0.131655722856521606
-0.380879819393157959 0.135992571711540222 -0.323307901620864868
0.31512528657913208 -0.157034963369369507 -0.329968512058258057
-0.312297224998474121 0.00539890537038445473 -0.371072322130203247
0.40444183349609375 -0.102944932878017426 -0.21295301616191864
-0.351680874824523926 -0.0158511120826005936 -0.412812352180480957
0.192088380455970764 -0.164336040616035461 -0.391584336757659912
-0.364254862070083618 0.152717232704162598 -0.289801537990570068
-0.220029771327972412 -0.104960814118385315 -0.424486666917800903
-0.312959074974060059 -0.0457691214978694916 -0.422048896551132202
0.272601485252380371 -0.15157569944858551 -0.347511559724807739
0.303498327732086182 -0.127484738826751709 -0.275994777679443359
-0.262439846992492676 -0.0696022659540176392 -0.40819084644317627
0.406785339117050171 0.00374078773893415928 -0.121595568954944611
0.276282370090484619 -0.176050841808319092 -0.372754544019699097
0.377748280763626099 -0.116649873554706573 -0.236072435975074768
-0.36167791485786438 0.125360056757926941 -0.333962738513946533
-0.29227900505065918 -0.0953597202897071838 -0.384987115859985352
0.320072948932647705 -0.172232240438461304 -0.243158936500549316
0.409109383821487427 -0.0982254520058631897 -0.181291282176971436
0.374399572610855103 -0.154841750860214233 -0.322999417781829834
0.296201258897781372 -0.181088760495185852 -0.329670250415802002
0.340756118297576904 -0.157599568367004395 -0.296412110328674316
0.089549824595451355 -0.133000478148460388 -0.441813349723815918
-0.372383832931518555 0.0444811955094337463 -0.380381524562835693
-0.371666312217712402 -0.019572792574763298 -0.378215640783309937
0.441712111234664917 -0.0758818760514259338 -0.139363378286361694
-0.374655932188034058 -0.0376979857683181763 -0.400177687406539917
0.309360653162002563 -0.15225537121295929 -0.33170202374458313
-0.324410527944564819 -0.0233553126454353333 -0.387893378734588623
0.024633847177028656 -0.15207478404045105 -0.426488399505615234
-0.16371820867061615 -0.141420841217041016 -0.466267049312591553
-0.298902422189712524 -0.093351319432258606 -0.392224818468093872
0.44474908709526062 -0.131643682718276978 -0.201758801937103271
-0.0391188859939575195 -0.0876777917146682739 -0.406228393316268921
0.198037385940551758 -0.168109044432640076 -0.384644538164138794
-0.355841845273971558 0.0228283293545246124 -0.404137402772903442
0.310923755168914795 -0.163217291235923767 -0.321159005165100098
-0.163810506463050842 -0.0809970870614051819 -0.380811750888824463
0.330947458744049072 -0.164597168564796448 -0.293316960334777832
-0.00715088052675127983 -0.130904883146286011 -0.435701042413711548
0.440851420164108276 -0.0843491926789283752 -0.143171951174736023
0.430405974388122559 -0.0638108551502227783 -0.111775852739810944
0.168723508715629578 -0.111767232418060303 -0.422241240739822388
-0.216429799795150757 -0.108862772583961487 -0.432030826807022095
-0.295410513877868652 -0.0414316430687904358 -0.399866402149200439
0.258992642164230347 -0.178582862019538879 -0.364208430051803589
0.121461763978004456 -0.178792461752891541 -0.455473929643630981
0.0676673799753189087 -0.202616468071937561 -0.433821052312850952
0.439586460590362549 -0.0354103073477745056 -0.0873856768012046814
-0.312188059091567993 -0.010523451492190361 -0.410254329442977905
0.256686985492706299 -0.204946309328079224 -0.341615468263626099
0.47160714864730835 -0.0629917457699775696 -0.107393048703670502
-0.210495695471763611 -0.0791744440793991089 -0.39806365966796875
0.437628000974655151 -0.11029680073261261 -0.213541880249977112
0.448911786079406738 -0.0919806733727455139 -0.147684201598167419
0.467027336359024048 -0.0391074679791927338 -0.0899141877889633179
0.267050713300704956 -0.162388414144515991 -0.413809895515441895
0.359105855226516724 -0.116784155368804932 -0.25626489520072937
0.467461615800857544 -0.0461487956345081329 -0.138394847512245178
0.0505874864757061005 -0.197195947170257568 -0.443193167448043823
0.411329507827758789 -0.0400449857115745544 -0.0808971747756004333
-0.387643426656723022 -0.000994147616438567638 -0.416407734155654907
0.371551692485809326 -0.126401007175445557 -0.201225340366363525
-0.378600418567657471 0.0697115883231163025 -0.415218114852905273
-0.0667121782898902893 -0.117017678916454315 -0.425635457038879395
0.405533254146575928 -0.0804076045751571655 -0.182094767689704895
-0.375756114721298218 -0.00385893136262893677 -0.40846601128578186
0.442105203866958618 -0.0680352598428726196 -0.133274510502815247
0.137955114245414734 -0.153013274073600769 -0.435028791427612305
0.478437095880508423 -0.0542015396058559418 -0.0890368223190307617
-0.047739759087562561 -0.119285374879837036 -0.414135843515396118
-0.314639657735824585 -0.105889610946178436 -0.414074718952178955
-0.35217776894569397 0.124749720096588135 -0.343320518732070923
0.349440187215805054 -0.127620503306388855 -0.278059035539627075
-0.221754357218742371 -0.100601896643638611 -0.39894258975982666
0.458886891603469849 -0.126898571848869324 -0.187966987490653992
-0.330447137355804443 -0.074457511305809021 -0.398265928030014038
0.153836563229560852 -0.172415196895599365 -0.413539737462997437
0.362753897905349731 -0.132524430751800537 -0.246616348624229431
0.296701192855834961 -0.162038877606391907 -0.34343564510345459
0.420915067195892334 -0.108569718897342682 -0.118122763931751251
-0.36846652626991272 0.0196022465825080872 -0.393560200929641724
0.394122391939163208 -0.147341802716255188 -0.266588538885116577
-0.107568733394145966 -0.118158482015132904 -0.439603209495544434
-0.396234780550003052 0.10126737505197525 -0.383981853723526001
-0.355350494384765625 -0.0305671542882919312 -0.404233813285827637
-0.185706466436386108 -0.119258567690849304 -0.403812587261199951
-0.272123575210571289 -0.0605373568832874298 -0.418490171432495117
-0.389521479606628418 -0.00151221186388283968 -0.397605240345001221
0.444567441940307617 -0.142498105764389038 -0.139341175556182861
0.42476382851600647 -0.105963684618473053 -0.155646666884422302
0.206032425165176392 -0.145220249891281128 -0.365773946046829224
-0.380708396434783936 0.126585930585861206 -0.272931843996047974
0.22875465452671051 -0.155076876282691956 -0.399604856967926025
0.364710003137588501 -0.0859181955456733704 -0.231928616762161255
0.358222693204879761 -0.130496218800544739 -0.326619178056716919
-0.361701488494873047 -0.0505912676453590393 -0.366499155759811401
0.362826943397521973 -0.161667272448539734 -0.226272329688072205
0.284741222858428955 -0.124278172850608826 -0.275484204292297363
-0.345902174711227417 0.0305935665965080261 -0.37791016697883606
0.315862357616424561 -0.169453561305999756 -0.289261966943740845
0.287169009447097778 -0.178368240594863892 -0.35744786262512207
0.241302728652954102 -0.165369555354118347 -0.398981094360351562
0.426442831754684448 -0.0981386750936508179 -0.135784074664115906
-0.263376504182815552 -0.0841501802206039429 -0.425508618354797363
0.359589993953704834 -0.135888174176216125 -0.304061263799667358
0.469847828149795532 -0.063085019588470459 -0.147230371832847595
0.372892647981643677 -0.132744282484054565 -0.28521302342414856
-0.243020236492156982 -0.105204440653324127 -0.438761234283447266
0.390707314014434814 -0.121282018721103668 -0.305576592683792114
-0.206043347716331482 -0.0835537910461425781 -0.416527122259140015
0.0871318429708480835 -0.156079187989234924 -0.382117927074432373
0.268409997224807739 -0.158233955502510071 -0.36730995774269104
0.480787396430969238 -0.0428673811256885529 -0.193773627281188965
-0.342819482088088989 -0.036944262683391571 -0.374843865633010864
-0.340793967247009277 -0.0218509547412395477 -0.382317572832107544
-0.369142204523086548 0.0751584768295288086 -0.370718777179718018
0.307129085063934326 -0.151763215661048889 -0.347751915454864502
0.414494216442108154 -0.115333490073680878 -0.156545281410217285
0.367799490690231323 -0.142521888017654419 -0.287472933530807495
-0.342645615339279175 0.00889671873301267624 -0.379687219858169556
-0.25548398494720459 -0.0719534531235694885 -0.385492980480194092
-0.313415884971618652 -0.0444754548370838165 -0.39254423975944519
0.388008296489715576 -0.100660644471645355 -0.185848191380500793
-0.161250472068786621 -0.109325878322124481 -0.415828406810760498
-0.043740592896938324 -0.12324833869934082 -0.430709153413772583
-0.322970807552337646 -0.0488009899854660034 -0.407180249691009521
0.477735817432403564 -0.0220509432256221771 -0.0635977387428283691
0.366754710674285889 -0.108505710959434509 -0.274061292409896851
-0.37786024808883667 0.0211512353271245956 -0.385529160499572754
0.378186136484146118 -0.126955091953277588 -0.216887146234512329
0.130910083651542664 -0.154087364673614502 -0.415239781141281128
0.308250844478607178 -0.171089679002761841 -0.335262924432754517
0.420127034187316895 -0.146495938301086426 -0.235588565468788147
0.309779256582260132 -0.104054860770702362 -0.296355962753295898
0.494556903839111328 -0.0300665237009525299 -0.0257591716945171356
0.332422912120819092 -0.154794245958328247 -0.31456226110458374
0.178632974624633789 -0.176942974328994751 -0.405557364225387573
-0.366832733154296875 0.0547643527388572693 -0.32607308030128479
0.43652641773223877 -0.0837687700986862183 -0.118142314255237579
-0.363868534564971924 -0.0101626263931393623 -0.438162863254547119
-0.355958014726638794 0.14278806746006012 -0.284312456846237183
-0.227922499179840088 -0.119972355663776398 -0.409519672393798828
0.0594575367867946625 -0.132956638932228088 -0.461342006921768188
-0.331131100654602051 0.0311945732682943344 -0.362052857875823975
-0.00156122760381549597 -0.134515613317489624 -0.384828895330429077
-0.296410411596298218 -0.0802973806858062744 -0.401420027017593384
0.0278547797352075577 -0.11386561393737793 -0.445347219705581665
-0.156325161457061768 -0.135165557265281677 -0.415717005729675293
-0.157055556774139404 -0.129455924034118652 -0.443200260400772095
-0.369658291339874268 0.117987491190433502 -0.279526054859161377
0.387800306081771851 -0.105836927890777588 -0.172289520502090454
0.330792993307113647 -0.0991237983107566833 -0.253574788570404053
0.443118810653686523 -0.0967271476984024048 -0.14709058403968811
-0.349091470241546631 -0.0305859185755252838 -0.386642336845397949
-0.346788346767425537 0.0814202427864074707 -0.383864104747772217
-0.273063510656356812 -0.0864872857928276062 -0.40838170051574707
0.465371012687683105 -0.0416128188371658325 -0.0968789458274841309
0.434730708599090576 -0.0486289672553539276 -0.0596075467765331268
-0.349291175603866577 -0.0603018663823604584 -0.395042538642883301
-0.310485482215881348 -0.0342021994292736053 -0.402786910533905029
0.25235062837600708 -0.141913279891014099 -0.390383601188659668
-0.336048752069473267 -0.00646208040416240692 -0.405436456203460693
0.0716192349791526794 -0.143777951598167419 -0.440955519676208496
-0.41011616587638855 0.0730777457356452942 -0.340941250324249268
0.00314639345742762089 -0.137224107980728149 -0.421337515115737915
-0.0548996739089488983 -0.167133316397666931 -0.399906516075134277
-0.0776342302560806274 -0.0954058095812797546 -0.431306511163711548
-0.0388467423617839813 -0.144046828150749207 -0.391132920980453491
-0.371824175119400024 0.0265400800853967667 -0.39193376898765564
-0.405093520879745483 0.0844079703092575073 -0.39558255672454834
0.0424316488206386566 -0.127943277359008789 -0.459349066019058228
0.443891942501068115 -0.0677719637751579285 -0.14618624746799469
-0.367212772369384766 -0.0300247222185134888 -0.371924132108688354
0.35236889123916626 -0.167330801486968994 -0.320922255516052246
0.364600777626037598 -0.130995944142341614 -0.302916347980499268
0.288746118545532227 -0.159230932593345642 -0.350802451372146606
0.232265099883079529 -0.212130188941955566 -0.367666482925415039
-0.379248708486557007 0.0216135177761316299 -0.449101686477661133
-0.375460326671600342 0.073195040225982666 -0.383339822292327881
-0.284325659275054932 -0.0924715399742126465 -0.409972161054611206
0.377960234880447388 -0.141674056649208069 -0.275913715362548828
0.462789386510848999 0.00219898461364209652 -0.100275665521621704
0.340649902820587158 -0.133680626749992371 -0.246373772621154785
0.0843852311372756958 -0.166111305356025696 -0.419356703758239746
0.0569957010447978973 -0.139940738677978516 -0.452323853969573975
0.533386468887329102 -0.0850022360682487488 -0.127723038196563721
-0.272151857614517212 -0.0820930823683738708 -0.357924610376358032
-0.167955413460731506 -0.131345540285110474 -0.425366193056106567
-0.194047406315803528 -0.157922595739364624 -0.446417689323425293
0.364222466945648193 -0.0885144621133804321 -0.225155055522918701
-0.0512681864202022552 -0.118787720799446106 -0.416830897331237793
0.369045853614807129 -0.133764773607254028 -0.230414927005767822
0.444505095481872559 -0.0734471380710601807 -0.150138929486274719
0.320907682180404663 -0.12308802455663681 -0.292115002870559692
0.00026982612325809896 -0.138565018773078918 -0.4175301194190979
-0.353384912014007568 -0.036670926958322525 -0.377460479736328125
-0.372186660766601562 0.028828304260969162 -0.389752954244613647
-0.360299825668334961 -0.0392833203077316284 -0.406164437532424927
-0.00602966407313942909 -0.0759386271238327026 -0.422270148992538452
0.355368107557296753 -0.151664644479751587 -0.32947772741317749
0.316895753145217896 -0.208405330777168274 -0.319985777139663696
0.468850702047348022 -0.0647570490837097168 -0.0504582524299621582
-0.380154132843017578 0.0441569201648235321 -0.404298841953277588
0.409808307886123657 -0.0693470612168312073 -0.131516903638839722
-0.311926573514938354 -0.0751451551914215088 -0.414258480072021484
-0.387012571096420288 0.0817618295550346375 -0.349813252687454224
-0.286506593227386475 0.0284310858696699142 -0.40696871280670166
0.327620834112167358 -0.200144633650779724 -0.264824599027633667
-0.15034879744052887 -0.111576735973358154 -0.394653171300888062
-0.355255037546157837 0.109537288546562195 -0.359194397926330566
-0.317125886678695679 -0.0519729405641555786 -0.407147794961929321
0.052846912294626236 -0.103552721440792084 -0.443396568298339844
0.448456525802612305 -0.0138604976236820221 -0.118739835917949677
-0.31787186861038208 -0.0513673536479473114 -0.402733027935028076
-0.347791850566864014 0.0908208861947059631 -0.376609355211257935
0.237880811095237732 -0.150815844535827637 -0.383928060531616211
0.389909833669662476 -0.112530000507831573 -0.207022383809089661
0.377235889434814453 -0.101158268749713898 -0.230536386370658875
-0.251131236553192139 -0.0826826244592666626 -0.408382385969161987
-0.37507215142250061 0.0344536267220973969 -0.353858530521392822
-0.308749854564666748 -0.0734833329916000366 -0.398713976144790649
0.433431237936019897 -0.108776137232780457 -0.218882516026496887
0.286726444959640503 -0.176154792308807373 -0.319672375917434692
0.361801594495773315 -0.141780570149421692 -0.324980229139328003
0.460428953170776367 -0.046591930091381073 -0.116398096084594727
-0.341642290353775024 -0.0209980737417936325 -0.392712712287902832
-0.375266969203948975 0.087636217474937439 -0.361139774322509766
-0.246394380927085876 -0.0987483114004135132 -0.424087196588516235
0.15209449827671051 -0.165503621101379395 -0.390513896942138672
-0.329613149166107178 -0.0397410206496715546 -0.385851263999938965
-0.397134989500045776 -0.0583477392792701721 -0.42969900369644165
0.17398485541343689 -0.168424203991889954 -0.398555964231491089
-0.363950997591018677 0.132214337587356567 -0.30015447735786438
0.144854933023452759 -0.109399870038032532 -0.38575822114944458
0.471507757902145386 -0.0685161426663398743 -0.0926272571086883545
0.197081625461578369 -0.157210275530815125 -0.395069360733032227
-0.339951574802398682 -0.0202450398355722427 -0.415181577205657959
-0.380274206399917603 0.0730024203658103943 -0.389351487159729004
0.422715604305267334 -0.0341962277889251709 -0.0979427620768547058
0.347052872180938721 -0.0846126675605773926 -0.194366246461868286
-0.368669658899307251 0.0531978011131286621 -0.388866633176803589
-0.274728089570999146 -0.090135619044303894 -0.394205838441848755
0.426268219947814941 -0.144855499267578125 -0.243300795555114746
0.408496558666229248 -0.0858255401253700256 -0.200980052351951599
0.476135015487670898 -0.0739305391907691956 -0.105079911649227142
0.120080187916755676 -0.140478953719139099 -0.423391461372375488
0.240388005971908569 -0.148212656378746033 -0.396425127983093262
0.357113808393478394 -0.132254958152770996 -0.262721240520477295
-0.402983188629150391 0.0426985025405883789 -0.386383384466171265
-0.110614724457263947 -0.161560922861099243 -0.444594830274581909
0.355406105518341064 -0.156133890151977539 -0.292790055274963379
0.389704316854476929 -0.146185562014579773 -0.270476192235946655
-0.100803814828395844 -0.133228421211242676 -0.409717202186584473
0.455840885639190674 -0.0817103460431098938 -0.145846009254455566
-0.239228367805480957 -0.0915371179580688477 -0.436499744653701782
-0.358509063720703125 -0.0359127968549728394 -0.378289163112640381
-0.388639122247695923 0.103380903601646423 -0.35864180326461792
-0.24635489284992218 -0.107782207429409027 -0.417473971843719482
0.370311111211776733 -0.158853590488433838 -0.273469716310501099
0.389292478561401367 -0.162300229072570801 -0.269195735454559326
0.449224501848220825 0.0171166658401489258 -0.0951612740755081177
0.285341411828994751 -0.166377171874046326 -0.32108074426651001
-0.384963482618331909 0.0839258879423141479 -0.356412649154663086
0.0401912294328212738 -0.164225846529006958 -0.43518868088722229
-0.0138740204274654388 -0.108021818101406097 -0.462995409965515137
0.346221864223480225 -0.143818631768226624 -0.189221099019050598
0.218799099326133728 -0.174556642770767212 -0.354934006929397583
0.361490607261657715 -0.149938642978668213 -0.284969925880432129
0.0934157818555831909 -0.19124370813369751 -0.401118457317352295
0.383052676916122437 -0.126168742775917053 -0.217867657542228699
0.292871356010437012 -0.158514514565467834 -0.330408573150634766
0.321031570434570312 -0.14229913055896759 -0.300998866558074951
-0.368334114551544189 0.0503701306879520416 -0.410705029964447021
0.150597080588340759 -0.156676024198532104 -0.392869889736175537
0.204948157072067261 -0.170391082763671875 -0.385673671960830688
-0.0264900811016559601 -0.136102244257926941 -0.428872287273406982
0.407423049211502075 -0.102262541651725769 -0.09912138432264328
0.386841833591461182 -0.114489421248435974 -0.264279425144195557
-0.380574077367782593 0.13729509711265564 -0.311296164989471436
0.445255458354949951 -0.0871676206588745117 -0.113443657755851746
-0.371488362550735474 0.0399929024279117584 -0.42443123459815979
0.0844897180795669556 -0.159083381295204163 -0.431645423173904419
0.102681733667850494 -0.159068003296852112 -0.417897313833236694
0.405110627412796021 -0.135276421904563904 -0.264055788516998291
0.260735601186752319 -0.134817957878112793 -0.360515117645263672
-0.321861982345581055 -0.0422281064093112946 -0.372085630893707275
-0.346275895833969116 0.00341122644022107124 -0.355948120355606079
0.255192339420318604 -0.150783941149711609 -0.3928871750831604
0.460004240274429321 -0.0927127748727798462 -0.145809531211853027
-0.378105282783508301 0.11817631870508194 -0.33926817774772644
-0.442262440919876099 0.0729034841060638428 -0.375558763742446899
-0.373599708080291748 0.06932821124792099 -0.3876991868019104
-0.309876769781112671 -0.0136567912995815277 -0.390084296464920044
0.475521236658096313 -0.0254370551556348801 -0.0472563393414020538
0.476338416337966919 -0.0512974858283996582 -0.124004088342189789
-0.327808409929275513 0.0149447480216622353 -0.422769099473953247
0.358282178640365601 -0.163346856832504272 -0.323851466178894043
-0.343145102262496948 0.0179022848606109619 -0.408421963453292847
0.40724945068359375 -0.140338510274887085 -0.244332000613212585
0.323359549045562744 -0.116531424224376678 -0.351355910301208496
0.0238562673330307007 -0.125401362776756287 -0.432793557643890381
0.419578284025192261 -0.101675882935523987 -0.111462347209453583
0.150064960122108459 -0.16658473014831543 -0.400857627391815186
-0.0662424862384796143 -0.129408225417137146 -0.425893217325210571
0.426559895277023315 -0.0952500626444816589 -0.199988231062889099
0.445923477411270142 0.0134264156222343445 -0.0949726849794387817
-0.353213399648666382 0.016946868970990181 -0.42485162615776062
0.465470969676971436 -0.0229117274284362793 -0.0860655307769775391
0.48230355978012085 -0.0798699334263801575 -0.241672471165657043
0.359144687652587891 -0.168120682239532471 -0.241142407059669495
0.321081101894378662 -0.169606193900108337 -0.349517285823822021
0.409291863441467285 -0.111130103468894958 -0.212490871548652649
0.369116932153701782 -0.0688445121049880981 -0.184224635362625122
-0.354355305433273315 0.107653871178627014 -0.315888345241546631
0.45600283145904541 0.0135956024751067162 -0.116190381348133087
0.43518376350402832 -0.0275309570133686066 -0.125575125217437744
-0.35577431321144104 -0.013158516027033329 -0.407415330410003662
0.29598623514175415 -0.173191830515861511 -0.351165562868118286
-0.376181483268737793 0.0169296190142631531 -0.370565295219421387
0.0173017382621765137 -0.191431909799575806 -0.431989610195159912
-0.312566667795181274 -0.0467435345053672791 -0.376613646745681763
0.497140824794769287 -0.0509500019252300262 -0.10228981077671051
-0.376650989055633545 0.0365505218505859375 -0.400803983211517334
-0.360406816005706787 -0.000124325961223803461 -0.367521733045578003
-0.346243560314178467 0.0109400013461709023 -0.388550281524658203
-0.322333067655563354 0.0698041245341300964 -0.359700262546539307
-0.388224542140960693 0.039437461644411087 -0.409609407186508179
0.15503963828086853 -0.170897811651229858 -0.409614205360412598
0.319478482007980347 -0.158435225486755371 -0.324775993824005127
0.465071916580200195 -0.0520909503102302551 -0.145038709044456482
-0.393791645765304565 0.0211509354412555695 -0.396310359239578247
0.411685734987258911 -0.0989039689302444458 -0.170103028416633606
-0.369413822889328003 0.0651809722185134888 -0.436376065015792847
0.285878747701644897 -0.166770443320274353 -0.330128282308578491
0.370015174150466919 -0.13070601224899292 -0.203523412346839905
-0.267200261354446411 -0.0859184339642524719 -0.413862794637680054
0.449494868516921997 -0.0675077065825462341 -0.190232157707214355
0.28547513484954834 -0.179017558693885803 -0.371558576822280884
-0.279159456491470337 -0.0875068157911300659 -0.426542341709136963
0.371891528367996216 -0.110809206962585449 -0.158982425928115845
-0.230630591511726379 -0.129667490720748901 -0.442266792058944702
-0.0294218268245458603 -0.166944518685340881 -0.406521886587142944
0.263973861932754517 -0.172227770090103149 -0.382805615663528442
0.468405276536941528 -0.0643353089690208435 -0.107112675905227661
0.309769481420516968 -0.101508624851703644 -0.246408447623252869
-0.0136766638606786728 -0.131946787238121033 -0.418469905853271484
-0.403419554233551025 0.14003327488899231 -0.298474133014678955
0.388643234968185425 -0.121429085731506348 -0.205759778618812561
0.434234499931335449 -0.087057165801525116 -0.135936632752418518
0.46014896035194397 -0.0368293896317481995 -0.130796387791633606
0.353308171033859253 -0.114203333854675293 -0.172373265027999878
0.325140595436096191 -0.131957024335861206 -0.316512614488601685
0.430528759956359863 -0.112901002168655396 -0.161009475588798523
-0.409207075834274292 0.0491020604968070984 -0.417580664157867432
-0.224126309156417847 -0.126315727829933167 -0.459350287914276123
0.277531534433364868 -0.139328405261039734 -0.346093803644180298
0.0860562846064567566 -0.157914593815803528 -0.429807037115097046
0.389350265264511108 -0.129179015755653381 -0.267940998077392578
-0.365222573280334473 0.0469009950757026672 -0.358405530452728271
0.403302311897277832 -0.0840834230184555054 -0.18639799952507019
0.373921871185302734 -0.111279405653476715 -0.28218001127243042
-0.361500591039657593 0.113607197999954224 -0.315367072820663452
0.119126155972480774 -0.1321001797914505 -0.405119925737380981
-0.309278875589370728 -0.0462240725755691528 -0.396531760692596436
-0.375410228967666626 0.0384448207914829254 -0.392289191484451294
0.415487945079803467 -0.120873004198074341 -0.226076960563659668
0.0566703714430332184 -0.137200996279716492 -0.412029117345809937
0.351238489151000977 -0.104890421032905579 -0.187729179859161377
0.211288303136825562 -0.169057011604309082 -0.411941021680831909
-0.369390487670898438 0.0428396165370941162 -0.385465145111083984
0.448301523923873901 -0.11619335412979126 -0.158835619688034058
0.384963005781173706 -0.085643470287322998 -0.114439405500888824
0.303262442350387573 -0.132726326584815979 -0.288808763027191162
-0.188835844397544861 -0.0694846212863922119 -0.387387454509735107
0.124191731214523315 -0.17168542742729187 -0.432251244783401489
-0.254009366035461426 -0.12883971631526947 -0.420471400022506714
0.358375966548919678 -0.14418242871761322 -0.306372731924057007
0.169115900993347168 -0.143446341156959534 -0.360449671745300293
-0.194588854908943176 -0.107911355793476105 -0.41904112696647644
-0.0482851117849349976 -0.105188965797424316 -0.378251731395721436
0.424714267253875732 -0.07654542475938797 -0.169074714183807373
-0.184618189930915833 -0.0973799601197242737 -0.430410981178283691
-0.04409051313996315 -0.139984682202339172 -0.424328118562698364
0.313534915447235107 -0.142561912536621094 -0.343577533960342407
-0.318571180105209351 -0.0145595036447048187 -0.382573485374450684
-0.00556406751275062561 -0.125507593154907227 -0.428520739078521729
0.363858461380004883 -0.074212983250617981 -0.185369014739990234
0.461151987314224243 -0.0727361738681793213 -0.112595431506633759
0.0622614733874797821 -0.144178882241249084 -0.403222084045410156
0.464146882295608521 -0.0517758280038833618 -0.0631010085344314575
-0.364857256412506104 -0.0238326918333768845 -0.421100229024887085
-0.0126788411289453506 -0.100230716168880463 -0.43188852071762085
0.345811754465103149 -0.088253408670425415 -0.209519311785697937
0.461767077445983887 -0.0267416723072528839 -0.0929424017667770386
0.455378085374832153 8.79760846146382391e-05 -0.0881985127925872803
0.451080650091171265 -0.0731430500745773315 -0.106503002345561981
-0.367345601320266724 0.102785497903823853 -0.379859864711761475
0.381553947925567627 -0.0748875215649604797 -0.297434628009796143
0.348910778760910034 -0.152817532420158386 -0.224243879318237305
0.1907024085521698 -0.201680511236190796 -0.420224398374557495
-0.346795320510864258 0.149959474802017212 -0.287145614624023438
-0.237762182950973511 -0.0939039960503578186 -0.408543050289154053
-0.315918445587158203 -0.0656351819634437561 -0.394723474979400635
-0.102248787879943848 -0.102996639907360077 -0.430590569972991943
0.160179406404495239 -0.203969746828079224 -0.419311732053756714
0.439153909683227539 -0.0796122997999191284 -0.0938348695635795593
0.273837417364120483 -0.15479375422000885 -0.36232757568359375
0.131728425621986389 -0.144064873456954956 -0.463530898094177246
-0.158489316701889038 -0.0879985466599464417 -0.422765374183654785
0.379249483346939087 -0.0945225432515144348 -0.152475297451019287
-0.370149880647659302 0.0903608128428459167 -0.381238013505935669
0.291720479726791382 -0.142384707927703857 -0.340190798044204712
0.494675099849700928 -0.0223172102123498917 -0.0739510133862495422
-0.258681535720825195 -0.0901924893260002136 -0.449341177940368652
-0.358467936515808105 0.0286542605608701706 -0.379297256469726562
0.337218403816223145 -0.140463054180145264 -0.289060592651367188
-0.329720973968505859 -0.032422386109828949 -0.41204562783241272
-0.369431912899017334 0.100809343159198761 -0.377744019031524658
0.393479794263839722 -0.064418308436870575 -0.127905100584030151
0.465959042310714722 -0.0506529957056045532 -0.113947033882141113
0.426668256521224976 -0.067165866494178772 -0.111283831298351288
-0.352319806814193726 -0.022624993696808815 -0.373215854167938232
0.340500324964523315 -0.151563271880149841 -0.296376585960388184
0.0129400677978992462 -0.128247931599617004 -0.434014290571212769
-0.336864829063415527 0.161780059337615967 -0.333545118570327759
0.40718764066696167 -0.0921305343508720398 -0.157464891672134399
0.056484077125787735 -0.137950614094734192 -0.425694018602371216
-0.336463272571563721 -0.0648383200168609619 -0.389149010181427002
0.310121744871139526 -0.119916245341300964 -0.251788198947906494
-0.380754053592681885 0.103151701390743256 -0.391157925128936768
-0.32450065016746521 -0.0108341509476304054 -0.407707780599594116
-0.248916864395141602 -0.113112755119800568 -0.428529590368270874
0.394186735153198242 -0.123500064015388489 -0.223216623067855835
-0.360558837652206421 0.10188739001750946 -0.362825870513916016
0.382359325885772705 -0.119280889630317688 -0.125091671943664551
-0.0830375626683235168 -0.121462501585483551 -0.395687907934188843
0.254591226577758789 -0.159266024827957153 -0.372245639562606812
0.38824695348739624 -0.115172162652015686 -0.206112608313560486
0.194980055093765259 -0.155781298875808716 -0.413888990879058838
0.299805343151092529 -0.156875565648078918 -0.370330929756164551
0.455954432487487793 -0.0814067572355270386 -0.103889249265193939
0.325468212366104126 -0.104039765894412994 -0.16117432713508606
-0.266588985919952393 -0.0811705738306045532 -0.430796891450881958
0.26603206992149353 -0.163476541638374329 -0.30682799220085144
0.279326915740966797 -0.167064085602760315 -0.392948031425476074
-0.344080209732055664 0.0228914283215999603 -0.395874261856079102
0.415357530117034912 -0.130446672439575195 -0.190043270587921143
0.405523747205734253 -0.164078265428543091 -0.229516357183456421
0.373798668384552002 -0.0924276933073997498 -0.242081701755523682
0.222369208931922913 -0.170441284775733948 -0.369886517524719238
0.387975990772247314 -0.151525095105171204 -0.344080597162246704
0.074649125337600708 -0.112272009253501892 -0.423487603664398193
0.118112578988075256 -0.111300863325595856 -0.459590673446655273
0.401576966047286987 -0.111554533243179321 -0.190776333212852478
0.333056777715682983 -0.12149260938167572 -0.292890876531600952
0.382951408624649048 -0.135175198316574097 -0.290149450302124023
0.0156083842739462852 -0.122940570116043091 -0.434865117073059082
-0.0956079438328742981 -0.132466703653335571 -0.410868018865585327
-0.207489266991615295 -0.0737552270293235779 -0.443243831396102905
-0.380934357643127441 -0.0178435761481523514 -0.408718079328536987
0.346024543046951294 -0.149952828884124756 -0.283517926931381226
0.393114447593688965 -0.110252343118190765 -0.240574881434440613
0.257025033235549927 -0.157932385802268982 -0.344426780939102173
0.0700431019067764282 -0.159064769744873047 -0.415994822978973389
0.240492463111877441 -0.169738933444023132 -0.383897870779037476
-0.230119824409484863 -0.115300290286540985 -0.496459633111953735
-0.344354301691055298 -0.00801105983555316925 -0.406520634889602661
0.479545891284942627 -0.0373197309672832489 -0.209895327687263489
-0.278152137994766235 -0.0906510427594184875 -0.414315640926361084
0.344361156225204468 -0.111968435347080231 -0.34112820029258728
-0.38015216588973999 0.0746801048517227173 -0.356962829828262329
0.0341459549963474274 -0.15312957763671875 -0.425327301025390625
0.346557945013046265 -0.125521391630172729 -0.245848029851913452
0.372508585453033447 -0.163339585065841675 -0.285826116800308228
0.371857255697250366 -0.150527685880661011 -0.329013019800186157
-0.166932404041290283 -0.127282142639160156 -0.411496341228485107
0.210123687982559204 -0.163232907652854919 -0.43709641695022583
-0.0483109802007675171 -0.134341388940811157 -0.408420443534851074
0.41783607006072998 -0.056776043027639389 -0.0862917378544807434
-0.200903266668319702 -0.0819187983870506287 -0.418156325817108154
0.300586998462677002 -0.156775161623954773 -0.264717698097229004
0.404016166925430298 -0.113835319876670837 -0.1957511305809021
0.359644562005996704 -0.127723932266235352 -0.184041351079940796
0.396413356065750122 -0.0936172604560852051 -0.140585869550704956
0.12743695080280304 -0.0967408940196037292 -0.424164712429046631
-0.361138373613357544 0.138663396239280701 -0.335348308086395264
0.440220147371292114 -0.0791689977049827576 -0.152742788195610046
-0.196331053972244263 -0.10475584864616394 -0.424301207065582275
0.182091325521469116 -0.146192759275436401 -0.390718936920166016
0.383245199918746948 -0.0990395471453666687 -0.181451261043548584
0.175475478172302246 -0.14485602080821991 -0.420626163482666016
0.346476942300796509 -0.135768711566925049 -0.281778216361999512
-0.00790314842015504837 -0.124825797975063324 -0.428278177976608276
-0.357209950685501099 -0.0146432751789689064 -0.371508330106735229
-0.409821033477783203 0.0156837292015552521 -0.427424073219299316
0.142494618892669678 -0.153422340750694275 -0.420370370149612427
-0.318548440933227539 -0.0473548360168933868 -0.405600786209106445
0.342516422271728516 -0.175202012062072754 -0.273308396339416504
0.243822947144508362 -0.152612537145614624 -0.331879258155822754
-0.0590962506830692291 -0.106944501399993896 -0.434623181819915771
0.163512691855430603 -0.144631713628768921 -0.400239378213882446
-0.346537232398986816 -0.0125138759613037109 -0.380939066410064697
0.497897803783416748 -0.111156769096851349 -0.113038785755634308
-0.0397772863507270813 -0.126352444291114807 -0.425020456314086914
-0.397621095180511475 0.110441960394382477 -0.310076415538787842
-0.152222409844398499 -0.0867474377155303955 -0.448865711688995361
0.421082735061645508 -0.081700347363948822 -0.082593865692615509
-0.314414918422698975 -0.0629969462752342224 -0.3851185142993927
-0.323088228702545166 -0.0385446064174175262 -0.390116691589355469
0.0706284716725349426 -0.125138849020004272 -0.475043833255767822
0.451163887977600098 -0.131472036242485046 -0.165191859006881714
0.405902862548828125 -0.15155482292175293 -0.245996341109275818
0.463103830814361572 -0.101565711200237274 -0.081737130880355835
-0.336360037326812744 0.130762696266174316 -0.316597342491149902
0.187619239091873169 -0.105673544108867645 -0.411304324865341187
-0.409502983093261719 0.0955002382397651672 -0.302788496017456055
-0.378262698650360107 0.0455953031778335571 -0.434606403112411499
0.299727886915206909 -0.170128688216209412 -0.301207065582275391
-0.317204833030700684 -0.00612313719466328621 -0.386517852544784546
0.196329802274703979 -0.174992039799690247 -0.384684175252914429
-0.355370819568634033 0.130018502473831177 -0.324487745761871338
-0.41472780704498291 0.0751215517520904541 -0.362885206937789917
0.272110551595687866 -0.162611141800880432 -0.365265697240829468
-0.0648428723216056824 -0.117848634719848633 -0.416094750165939331
-0.266559511423110962 -0.0904241800308227539 -0.364405900239944458
-0.333334594964981079 0.112405106425285339 -0.331560373306274414
-0.350539952516555786 0.0941991731524467468 -0.34563213586807251
-0.300130128860473633 0.0288296639919281006 -0.368883460760116577
-0.231078803539276123 -0.101175636053085327 -0.391768157482147217
-0.263776063919067383 -0.0597450658679008484 -0.414746403694152832
0.467466861009597778 -0.104091845452785492 -0.152245879173278809
0.30202057957649231 -0.129290714859962463 -0.319432109594345093
-0.396656721830368042 0.0542322136461734772 -0.37366485595703125
0.324156492948532104 -0.0889019444584846497 -0.111172132194042206
0.0937913283705711365 -0.171209976077079773 -0.426469594240188599
0.409667879343032837 -0.122038155794143677 -0.202860429883003235
-0.217747896909713745 -0.147100582718849182 -0.416836410760879517
0.0362168662250041962 -0.135304570198059082 -0.425237894058227539
-0.343877851963043213 0.0799652114510536194 -0.37041783332824707
0.35593646764755249 -0.167628198862075806 -0.230066478252410889
0.438240885734558105 -0.0872078165411949158 -0.0967743396759033203
0.44558030366897583 -0.00595637038350105286 -0.10923931747674942
0.18813633918762207 -0.183227241039276123 -0.397636145353317261
0.450884848833084106 -0.113836906850337982 -0.214889347553253174
0.469379544258117676 -0.0403144657611846924 -0.0965587049722671509
0.172867417335510254 -0.172058552503585815 -0.431956946849822998
0.136259645223617554 -0.162052139639854431 -0.426696747541427612
0.327394574880599976 -0.160561084747314453 -0.318979561328887939
0.351757466793060303 -0.117729239165782928 -0.286832422018051147
0.356222391128540039 -0.148490354418754578 -0.307469785213470459
0.0318771377205848694 -0.111781217157840729 -0.436908364295959473
0.368218868970870972 -0.116675160825252533 -0.238341554999351501
-0.287050932645797729 -0.0692995265126228333 -0.417562663555145264
-0.334261208772659302 0.0250347107648849487 -0.440517812967300415
0.431100696325302124 -0.0971611365675926208 -0.204305127263069153
0.0249485913664102554 -0.142810717225074768 -0.464964300394058228
0.456886410713195801 -0.00933218467980623245 -0.0935473665595054626
-0.398618906736373901 0.0263448134064674377 -0.411498457193374634
0.0870494544506072998 -0.148313239216804504 -0.388651072978973389
-0.36344456672668457 0.12641143798828125 -0.342546343803405762
0.388089001178741455 -0.133786529302597046 -0.209586247801780701
0.475653737783432007 0.00634527811780571938 -0.0881071686744689941
-0.385578006505966187 0.0970623865723609924 -0.382547974586486816
0.250019997358322144 -0.15953594446182251 -0.350124061107635498
0.0590438097715377808 -0.194477617740631104 -0.416350215673446655
0.00622701970860362053 -0.144694328308105469 -0.422264933586120605
0.172434687614440918 -0.160872772336006165 -0.403558880090713501
0.473135858774185181 -0.102572344243526459 -0.126110866665840149
-0.361139625310897827 0.0641616731882095337 -0.39648708701133728
-0.159761533141136169 -0.120914459228515625 -0.448569506406784058
0.457935988903045654 -0.0578966327011585236 -0.114336259663105011
0.0966677367687225342 -0.136020466685295105 -0.384207189083099365
-0.267503738403320312 -0.0656846985220909119 -0.415797263383865356
0.451611995697021484 -0.0595872402191162109 -0.156452134251594543
0.46935310959815979 -0.00121864303946495056 -0.0845761895179748535
-0.0835010111331939697 -0.13590259850025177 -0.395467221736907959
-0.377611070871353149 0.139767125248908997 -0.372135072946548462
0.00460029486566781998 -0.143540903925895691 -0.410367846488952637
0.4424857497215271 -0.0331784635782241821 -0.0909734517335891724
-0.0612323395907878876 -0.115363188087940216 -0.429668933153152466
0.317809730768203735 -0.131276056170463562 -0.295646309852600098
0.37885206937789917 -0.12386515736579895 -0.239208981394767761
0.224290430545806885 -0.178643226623535156 -0.367903649806976318
0.231300577521324158 -0.154926255345344543 -0.414671540260314941
0.393627196550369263 -0.0491664037108421326 -0.0808780267834663391
-0.0900024846196174622 -0.113773591816425323 -0.473169595003128052
-0.361259281635284424 0.0706944689154624939 -0.391624510288238525
0.306421190500259399 -0.157365813851356506 -0.369361847639083862
0.0690938010811805725 -0.136913582682609558 -0.412903189659118652
-0.0331338196992874146 -0.125767737627029419 -0.46169319748878479
-0.357371300458908081 0.106634080410003662 -0.38335070013999939
0.479661047458648682 -0.00594883551821112633 -0.115411132574081421
0.297155290842056274 -0.167452767491340637 -0.287191182374954224
0.396176666021347046 -0.125921651721000671 -0.217386350035667419
0.118106380105018616 -0.137014403939247131 -0.414606541395187378
0.317201673984527588 -0.132157281041145325 -0.372880846261978149
-0.374789834022521973 0.0647546872496604919 -0.355498790740966797
0.467723816633224487 -0.0934449657797813416 -0.182381525635719299
0.0997893437743186951 -0.173132956027984619 -0.430569469928741455
0.0601833797991275787 -0.14075133204460144 -0.458679109811782837
0.314949095249176025 -0.1322450190782547 -0.265514969825744629
-0.35351109504699707 0.106792077422142029 -0.332257062196731567
0.516255736351013184 -0.0264412220567464828 -0.0965310037136077881
0.192376106977462769 -0.156486421823501587 -0.304228931665420532
0.256916344165802002 -0.14855271577835083 -0.35165974497795105
0.390788763761520386 -0.130823776125907898 -0.276710033416748047
-0.374216914176940918 0.12334008514881134 -0.307364463806152344
-0.41165277361869812 0.0340764522552490234 -0.386710166931152344
0.313720136880874634 -0.116941340267658234 -0.300935029983520508
0.0995341241359710693 -0.145121261477470398 -0.428454816341400146
-0.265239119529724121 -0.10639345645904541 -0.410341143608093262
0.376654654741287231 -0.145373120903968811 -0.29553559422492981
-0.336369752883911133 0.127921551465988159 -0.369056284427642822
0.448336988687515259 -0.112194888293743134 -0.149654209613800049
0.339571505784988403 -0.123493045568466187 -0.318658769130706787
0.365922242403030396 -0.129098176956176758 -0.311857610940933228
-0.213544547557830811 -0.107058607041835785 -0.434414297342300415
0.383129119873046875 -0.0785252377390861511 -0.205535158514976501
-0.35589897632598877 -0.0147500578314065933 -0.368073999881744385
0.41143876314163208 -0.121209688484668732 -0.194296255707740784
0.310140460729598999 -0.13599725067615509 -0.214068159461021423
-0.0561052858829498291 -0.12946610152721405 -0.38896450400352478
-0.0392625033855438232 -0.164140939712524414 -0.453115284442901611
0.455981254577636719 -0.0856933444738388062 -0.201751947402954102
0.0034602070227265358 -0.090609915554523468 -0.452944159507751465
0.434302389621734619 -0.0867467597126960754 -0.178080588579177856
-0.328174769878387451 -0.0550026856362819672 -0.41755637526512146
-0.326017826795578003 -0.0185360051691532135 -0.388368606567382812
0.226603522896766663 -0.165881112217903137 -0.39129677414894104
-0.35977250337600708 0.0804754570126533508 -0.358532309532165527
0.443376153707504272 -0.0575913414359092712 -0.0892334803938865662
-0.390147626399993896 0.0579551160335540771 -0.379503816366195679
-0.315260589122772217 -0.0764883682131767273 -0.45047837495803833
0.0952877774834632874 -0.133311346173286438 -0.386377513408660889
0.307389169931411743 -0.17621321976184845 -0.322257101535797119
-0.333298563957214355 -0.0422973744571208954 -0.392825484275817871
0.4761485755443573 -0.0661490932106971741 -0.0854142233729362488
-0.373220384120941162 0.0547919757664203644 -0.388496875762939453
0.249623879790306091 -0.143513664603233337 -0.369722634553909302
0.0595257803797721863 -0.158431127667427063 -0.415866702795028687
-0.353639066219329834 0.00613288581371307373 -0.401604741811752319
-0.363404273986816406 0.116085857152938843 -0.333606868982315063
0.0844338685274124146 -0.138168439269065857 -0.428747594356536865
-0.226854383945465088 -0.086230836808681488 -0.461878120899200439
0.373829424381256104 -0.126399978995323181 -0.228734344244003296
0.444559723138809204 -0.151802599430084229 -0.253485411405563354
-0.329189330339431763 0.108707599341869354 -0.328351527452468872
-0.37338981032371521 -0.0366021692752838135 -0.415514647960662842
-0.0951421856880187988 -0.109527029097080231 -0.427419126033782959
-0.0101002035662531853 -0.116877242922782898 -0.412366896867752075
0.015486530028283596 -0.146078094840049744 -0.462265282869338989
-0.379700303077697754 0.0443270467221736908 -0.403885096311569214
-0.0626207813620567322 -0.120321080088615417 -0.395252615213394165
-0.273890525102615356 -0.0727120935916900635 -0.406475603580474854
-0.0814988687634468079 -0.082368016242980957 -0.418168067932128906
-0.363812386989593506 0.0486797243356704712 -0.38731151819229126
-0.306330382823944092 -0.0865554213523864746 -0.450236618518829346
0.313233882188796997 -0.163888350129127502 -0.2634868323802948
-0.376039624214172363 -0.00107470736838877201 -0.406273543834686279
-0.163473919034004211 -0.114831611514091492 -0.366912335157394409
-0.249958038330078125 -0.0880280435085296631 -0.4267997145652771
0.422844409942626953 -0.0674975067377090454 -0.191107824444770813
-0.304689079523086548 -0.053506702184677124 -0.405592292547225952
-0.392622411251068115 0.114842243492603302 -0.338592857122421265
0.426150083541870117 -0.066117607057094574 -0.179919302463531494
0.519181609153747559 -0.0197488833218812943 -0.104048438370227814
0.389125734567642212 -0.144655823707580566 -0.259453803300857544
-0.130886539816856384 -0.142662644386291504 -0.435757607221603394
-0.334667712450027466 -0.0157090630382299423 -0.352329492568969727
-0.359684288501739502 0.156900361180305481 -0.284883588552474976
0.300207018852233887 -0.172382041811943054 -0.365020334720611572
-0.118195168673992157 -0.117162719368934631 -0.3990134596824646
-0.327000170946121216 -0.0707537382841110229 -0.415489077568054199
0.285313934087753296 -0.197178065776824951 -0.381388723850250244
-0.365271270275115967 0.118908964097499847 -0.305215567350387573
-0.375593245029449463 -0.0425177775323390961 -0.39753568172454834
0.196772128343582153 -0.187907874584197998 -0.409335225820541382
0.365893155336380005 -0.120494678616523743 -0.265215545892715454
0.335195630788803101 -0.140302836894989014 -0.261538922786712646
-0.343867391347885132 0.100484900176525116 -0.353205442428588867
-0.327025890350341797 -0.0491504929959774017 -0.407925724983215332
-0.105139471590518951 -0.153211280703544617 -0.390840709209442139
-0.353627711534500122 0.0367589406669139862 -0.382668137550354004
-0.382506012916564941 0.0390808582305908203 -0.365820318460464478
0.39257696270942688 -0.157241955399513245 -0.203639611601829529
0.0988721400499343872 -0.175019234418869019 -0.43836483359336853
0.281900674104690552 -0.144763797521591187 -0.385227441787719727
0.345017135143280029 -0.126385599374771118 -0.309129923582077026
0.175890281796455383 -0.148167580366134644 -0.423288583755493164
-0.250242322683334351 -0.103231579065322876 -0.43085712194442749
0.116215832531452179 -0.143424957990646362 -0.369315147399902344
-0.144280150532722473 -0.0984142273664474487 -0.436521798372268677
0.302900582551956177 -0.141168698668479919 -0.343369960784912109
0.270194649696350098 -0.165003746747970581 -0.370336741209030151
-0.020637882873415947 -0.115145549178123474 -0.444556087255477905
-0.410133004188537598 0.0990142375230789185 -0.365078121423721313
-0.350939095020294189 0.0928466096520423889 -0.3936137855052948
0.429979383945465088 -0.0897820144891738892 -0.143893197178840637
0.244574457406997681 -0.166125878691673279 -0.307044625282287598
0.268814682960510254 -0.11627466231584549 -0.34771159291267395
0.0966145098209381104 -0.175384089350700378 -0.408069431781768799
0.399096518754959106 -0.114224471151828766 -0.190450593829154968
-0.381446957588195801 0.11042138934135437 -0.346932709217071533
-0.204540923237800598 -0.13102605938911438 -0.437365531921386719
-0.228477105498313904 -0.0630689635872840881 -0.433840334415435791
-0.161857277154922485 -0.114996448159217834 -0.433527261018753052
0.479968100786209106 -0.0639215782284736633 -0.159557059407234192
-0.180105090141296387 -0.12613929808139801 -0.420359134674072266
-0.310316711664199829 -0.0672578662633895874 -0.381049841642379761
0.405007719993591309 -0.121058978140354156 -0.141260936856269836
0.0858538821339607239 -0.132399886846542358 -0.410837024450302124
0.512015581130981445 -0.0765320435166358948 -0.116737760603427887
-0.349914908409118652 0.0862139239907264709 -0.37178841233253479
0.475413531064987183 -0.0329347960650920868 -0.110787644982337952
0.348825395107269287 -0.155346661806106567 -0.247842133045196533
0.383422940969467163 -0.0638375803828239441 -0.202658802270889282
0.371778964996337891 -0.173405379056930542 -0.22853812575340271
0.032475203275680542 -0.166784971952438354 -0.433446198701858521
-0.0839942842721939087 -0.116268053650856018 -0.43654179573059082
0.243621930480003357 -0.16429564356803894 -0.398761093616485596
