ply
format ascii 1.0
element vertex 752
comment vertices
property float x
property float y
property float z
end_header
0.545298159122467041 0.206771299242973328 0.101189233362674713
0.279186099767684937 -0.273393809795379639 0.323408603668212891
0.314021676778793335 -0.268910259008407593 0.359831809997558594
0.341585367918014526 0.381566733121871948 0.215719893574714661
-0.133500874042510986 -0.434062778949737549 0.353362530469894409
0.394973218441009521 -0.110449455678462982 0.340644329786300659
0.517753422260284424 0.136238455772399902 0.167453005909919739
-0.327266573905944824 -0.440677553415298462 0.409635096788406372
0.357288986444473267 0.40009230375289917 0.208857476711273193
0.496995091438293457 0.22880767285823822 -0.0360614322125911713
0.00541775533929467201 -0.409337162971496582 0.333051890134811401
0.196379527449607849 -0.259507656097412109 0.280902475118637085
0.443376779556274414 -0.0337559059262275696 0.312972813844680786
-0.0896490141749382019 -0.434228867292404175 0.343617767095565796
0.26700139045715332 0.453716665506362915 0.267491072416305542
0.544002771377563477 0.235156431794166565 0.0163584630936384201
-0.108436748385429382 -0.4369392991065979 0.335893541574478149
0.523728370666503906 0.115255273878574371 0.251451849937438965
0.510441482067108154 0.311943203210830688 0.0912907347083091736
0.46192660927772522 -0.0295708905905485153 0.304983943700790405
0.579306542873382568 0.155734434723854065 0.166517049074172974
0.567212581634521484 0.1039571613073349 0.220833912491798401
0.360833108425140381 0.374926894903182983 0.11322745680809021
0.133989110589027405 0.462178796529769897 0.312309056520462036
-0.650134921073913574 -0.299187541007995605 0.364350974559783936
0.536476552486419678 0.0829094797372817993 0.240929827094078064
0.384943693876266479 -0.173864081501960754 0.273409008979797363
0.314740300178527832 -0.25366547703742981 0.345780283212661743
0.477227956056594849 0.282809793949127197 0.00748367514461278915
0.119041219353675842 0.457451701164245605 0.350614875555038452
0.505796253681182861 0.153273001313209534 0.229377806186676025
0.421390503644943237 0.30884021520614624 0.10216154158115387
0.494530230760574341 -0.055021628737449646 0.34177553653717041
0.549475014209747314 0.248333588242530823 0.0370881035923957825
0.549190104007720947 0.269751429557800293 0.048367474228143692
-0.284869283437728882 -0.426228135824203491 0.408551573753356934
0.589117288589477539 0.312956243753433228 0.0642883852124214172
0.0905999317765235901 0.513090252876281738 0.268841743469238281
0.465145975351333618 0.0145225655287504196 0.356922268867492676
0.608248412609100342 0.165417522192001343 0.178674235939979553
0.553181469440460205 0.288512676954269409 0.0034337388351559639
-0.467561781406402588 -0.436335504055023193 0.427257061004638672
-0.698188245296478271 -0.335167497396469116 0.357837915420532227
0.365642070770263672 -0.12245449423789978 0.380094736814498901
-0.105786465108394623 -0.427267551422119141 0.340672343969345093
0.537920832633972168 0.169486314058303833 0.234811782836914062
0.118230164051055908 0.504382014274597168 0.314779132604598999
0.467526763677597046 0.00296310870908200741 0.311391741037368774
-0.296413719654083252 -0.436780750751495361 0.39027521014213562
0.537763535976409912 0.225601628422737122 0.152276426553726196
0.561963200569152832 0.241869017481803894 0.0639424994587898254
0.284551948308944702 0.450535446405410767 0.254119008779525757
-0.0209970716387033463 -0.426862746477127075 0.330479979515075684
-0.157714322209358215 -0.432388335466384888 0.357616931200027466
0.550494730472564697 0.217440739274024963 0.109423868358135223
0.47714841365814209 -0.0515430346131324768 0.281240105628967285
0.194679528474807739 0.460886269807815552 0.328187078237533569
0.487975329160690308 0.268010318279266357 0.0841449126601219177
0.315602958202362061 0.428661048412322998 0.221055939793586731
-0.604488968849182129 -0.376624196767807007 0.393284231424331665
0.439758956432342529 -0.0637214407324790955 0.313676983118057251
0.512412488460540771 0.141628846526145935 0.197867974638938904
0.589664757251739502 0.229695051908493042 0.107191942632198334
0.094858512282371521 0.531626224517822266 0.292899012565612793
-0.488053739070892334 -0.411469042301177979 0.426643252372741699
0.314351886510848999 -0.212958604097366333 0.386113464832305908
-0.138308599591255188 -0.419112712144851685 0.333725005388259888
-0.60901719331741333 -0.418482810258865356 0.405257493257522583
0.516717612743377686 0.254056006669998169 0.0558195337653160095
0.525517523288726807 0.304836153984069824 -0.00597781315445899963
0.229147151112556458 -0.306947171688079834 0.295854896306991577
0.0339073017239570618 -0.404966801404953003 0.335607856512069702
0.454501628875732422 0.236308366060256958 -0.0641995817422866821
-0.137754902243614197 -0.440186262130737305 0.342944681644439697
0.254798948764801025 -0.307667970657348633 0.320973962545394897
0.504995942115783691 0.0393026955425739288 0.302636802196502686
0.496355235576629639 0.143196508288383484 0.2027464359998703
0.424614220857620239 -0.154719263315200806 0.349578112363815308
0.526983857154846191 0.260200768709182739 0.117928817868232727
0.451599746942520142 -3.78944605472497642e-05 0.35108378529548645
0.446972966194152832 -0.0891576036810874939 0.352607041597366333
-0.0385009050369262695 -0.387346506118774414 0.328026711940765381
0.523615598678588867 0.309975355863571167 0.018544413149356842
0.503970801830291748 0.248402819037437439 0.0857649743556976318
0.513519465923309326 0.09818287193775177 0.278743177652359009
0.188989296555519104 -0.289336711168289185 0.310807764530181885
0.293706834316253662 0.499806404113769531 0.304358690977096558
0.344743460416793823 -0.15097498893737793 0.384071767330169678
0.532562851905822754 0.156964153051376343 0.204311773180961609
0.322579622268676758 -0.203889533877372742 0.388494282960891724
0.0646497532725334167 -0.365987181663513184 0.336080640554428101
0.361734062433242798 0.375507384538650513 0.160862967371940613
-0.251416176557540894 -0.409544825553894043 0.389479756355285645
-0.283543825149536133 -0.41673201322555542 0.403817236423492432
0.365482687950134277 -0.188237041234970093 0.342045366764068604
0.364383310079574585 0.349399298429489136 0.170009270310401917
0.589537918567657471 0.241107076406478882 0.0334013663232326508
0.070355542004108429 -0.36397215723991394 0.337412357330322266
0.416785657405853271 -0.171089276671409607 0.343114674091339111
0.529177486896514893 0.165124565362930298 0.165315717458724976
0.288139969110488892 0.446844309568405151 0.25779387354850769
0.240734323859214783 -0.296657681465148926 0.360637575387954712
0.546035170555114746 0.24357268214225769 -0.0188993848860263824
0.383259624242782593 -0.16600017249584198 0.318761676549911499
0.378162980079650879 -0.136196210980415344 0.396911084651947021
0.552664041519165039 0.230992808938026428 0.0671632811427116394
0.21972048282623291 0.48721998929977417 0.341884464025497437
0.482729077339172363 0.238479658961296082 -0.00269398814998567104
0.175531893968582153 0.420110225677490234 0.364887058734893799
-0.524732410907745361 -0.425439804792404175 0.403324902057647705
0.38329392671585083 0.368733644485473633 0.18960927426815033
0.546066582202911377 0.131047710776329041 0.182685032486915588
0.484876185655593872 0.0102096265181899071 0.296970993280410767
0.631800472736358643 0.249525681138038635 0.00319038494490087032
0.54392707347869873 0.153981104493141174 0.179393187165260315
0.345364987850189209 0.404499530792236328 0.179488107562065125
0.418617427349090576 -0.0592433176934719086 0.315592586994171143
0.534082174301147461 0.262000322341918945 0.0999204739928245544
0.461455762386322021 0.286910206079483032 0.10979180783033371
0.411312073469161987 0.310490310192108154 0.13190867006778717
0.41096225380897522 -0.148772358894348145 0.344499737024307251
-0.653542637825012207 -0.364404290914535522 0.402509480714797974
0.460014224052429199 0.0800107866525650024 0.266478300094604492
0.514348804950714111 0.106464937329292297 0.245559453964233398
0.254514038562774658 0.46378713846206665 0.281126201152801514
0.536865830421447754 0.226202338933944702 0.0503225401043891907
0.527998268604278564 0.282101958990097046 0.0152379404753446579
-0.15571257472038269 -0.414258837699890137 0.343979924917221069
0.564648807048797607 0.294932931661605835 0.00582831026986241341
-0.0815747305750846863 -0.422081053256988525 0.271627813577651978
-0.677895486354827881 -0.355229318141937256 0.391689538955688477
0.533930718898773193 0.229211121797561646 0.150335133075714111
0.501626670360565186 0.173176035284996033 0.163252145051956177
0.250205188989639282 0.451585859060287476 0.277007430791854858
0.516670286655426025 0.103003889322280884 0.222847074270248413
0.217662587761878967 0.48227459192276001 0.278110653162002563
0.54804307222366333 0.24054601788520813 -0.0332251973450183868
-0.0546340718865394592 -0.392816424369812012 0.329829365015029907
0.371049195528030396 -0.123097412288188934 0.329330503940582275
0.320305496454238892 0.342742472887039185 0.184143379330635071
0.555597186088562012 0.0942956879734992981 0.238803565502166748
0.364923417568206787 0.396281003952026367 0.213046044111251831
-0.523314058780670166 -0.425220668315887451 0.432852864265441895
0.543062090873718262 0.238980412483215332 0.0568918175995349884
0.593534648418426514 0.235016867518424988 0.0211678463965654373
0.470853924751281738 0.00156584102660417557 0.274946600198745728
0.065563499927520752 0.516708493232727051 0.279430657625198364
0.322393238544464111 -0.185124054551124573 0.317859947681427002
0.497721284627914429 0.161366432905197144 0.182916685938835144
0.567163944244384766 0.222901389002799988 0.095885835587978363
0.444916069507598877 0.231418415904045105 0.130440235137939453
0.4823341965675354 0.0567269064486026764 0.312751650810241699
0.535658538341522217 0.156533628702163696 0.163420066237449646
0.310698956251144409 0.464700937271118164 0.205717712640762329
0.546088695526123047 0.192379623651504517 0.094067595899105072
0.456668615341186523 0.129002764821052551 0.172753691673278809
0.295874506235122681 -0.25177118182182312 0.318067550659179688
0.480910778045654297 0.259095251560211182 -0.0132451187819242477
0.537262499332427979 0.254701882600784302 0.0383336395025253296
0.467247337102890015 0.300103366374969482 0.105051033198833466
-0.193427443504333496 -0.409763962030410767 0.376392185688018799
0.260853081941604614 0.434565454721450806 0.229426160454750061
0.405013561248779297 0.297988355159759521 0.139542236924171448
0.314443826675415039 -0.218967244029045105 0.379070281982421875
0.253715097904205322 0.486515313386917114 0.266437351703643799
0.274910032749176025 0.515406012535095215 0.279663622379302979
0.449849963188171387 0.283625960350036621 0.0534174703061580658
0.444925099611282349 -0.0414899028837680817 0.366177022457122803
0.330263793468475342 0.333409368991851807 0.208751827478408813
0.143515706062316895 0.466489434242248535 0.292718231678009033
0.013752419501543045 -0.409540057182312012 0.327484309673309326
0.625700175762176514 0.274857938289642334 0.060286547988653183
0.169929549098014832 0.48717421293258667 0.277924507856369019
0.110212013125419617 -0.342757552862167358 0.349858880043029785
0.524329960346221924 0.0986278727650642395 0.275139600038528442
0.504495441913604736 -0.00952782388776540756 0.311772823333740234
0.245798900723457336 0.477971822023391724 0.315211325883865356
0.269679516553878784 -0.248886778950691223 0.349591910839080811
0.16765885055065155 0.485581755638122559 0.277168184518814087
0.230113178491592407 0.462624788284301758 0.305603563785552979
0.348159223794937134 -0.183808714151382446 0.313518613576889038
0.395719975233078003 0.318969607353210449 0.160118505358695984
0.411420226097106934 0.311814993619918823 0.160439833998680115
0.463553547859191895 0.319975197315216064 0.0957226529717445374
0.34529528021812439 0.314698457717895508 0.16681671142578125
0.34132087230682373 -0.1548471599817276 0.347936153411865234
0.184551343321800232 0.444082736968994141 0.376020282506942749
0.26964917778968811 -0.248467236757278442 0.346102088689804077
0.564768016338348389 0.316116988658905029 0.0813937783241271973
0.438710451126098633 -0.0634327232837677002 0.337643027305603027
0.509728729724884033 0.188710689544677734 0.119345404207706451
0.496443361043930054 0.288562417030334473 -0.0532967299222946167
-0.628296315670013428 -0.357190608978271484 0.349039673805236816
0.529880046844482422 0.154457375407218933 0.210422948002815247
0.150131270289421082 0.489343911409378052 0.291702419519424438
0.0383178815245628357 -0.379697889089584351 0.320184141397476196
0.526526391506195068 0.298981547355651855 0.100577510893344879
0.548903346061706543 0.0795852392911911011 0.264805197715759277
0.531942069530487061 0.2271919846534729 0.148219138383865356
0.417200148105621338 0.383024305105209351 0.188860654830932617
0.331757664680480957 -0.177228003740310669 0.317899078130722046
-0.010504172183573246 -0.400405764579772949 0.307713299989700317
0.118340983986854553 -0.350713461637496948 0.35380089282989502
0.503353595733642578 0.107720375061035156 0.271497607231140137
0.299980908632278442 0.428825736045837402 0.294797360897064209
0.410391241312026978 0.372332930564880371 0.154149129986763
0.488379687070846558 0.0774086415767669678 0.26397433876991272
0.137951016426086426 -0.346181005239486694 0.317253172397613525
-0.65120244026184082 -0.372166842222213745 0.377544164657592773
0.526599466800689697 0.179865285754203796 0.177298545837402344
-0.0753026008605957031 -0.425574958324432373 0.337104320526123047
0.560307621955871582 0.217376276850700378 0.128850415349006653
0.474855333566665649 0.249291613698005676 -0.0285108424723148346
0.181664809584617615 0.509131669998168945 0.309548437595367432
-0.658817291259765625 -0.365133076906204224 0.349441260099411011
0.395337522029876709 0.289164692163467407 0.13948407769203186
0.141215592622756958 0.419452846050262451 0.340359330177307129
0.531694531440734863 0.123604364693164825 0.160949021577835083
-0.0758041217923164368 -0.436282247304916382 0.328941226005554199
0.00680240662768483162 0.479357331991195679 0.277197271585464478
0.290121912956237793 0.453816264867782593 0.279401272535324097
0.397437721490859985 -0.0956711992621421814 0.367398560047149658
0.326344311237335205 0.375036269426345825 0.214349806308746338
0.452460438013076782 -0.0929806306958198547 0.369912534952163696
0.358548074960708618 0.335691273212432861 0.153118178248405457
0.515697240829467773 0.264593988656997681 -0.00296394899487495422
0.407622188329696655 0.353193283081054688 0.150843650102615356
0.289464712142944336 -0.312897026538848877 0.335603982210159302
0.174995690584182739 -0.327197462320327759 0.325702965259552002
0.559284090995788574 0.236487239599227905 0.05944022536277771
0.523687541484832764 0.168605238199234009 0.225333929061889648
-0.250488638877868652 -0.44234168529510498 0.407688707113265991
0.510562241077423096 0.14114128053188324 0.248310849070549011
0.522720277309417725 0.221020534634590149 0.0258107166737318039
0.56026303768157959 0.184260159730911255 0.124620795249938965
0.308460772037506104 0.406163871288299561 0.214990586042404175
0.547018647193908691 0.212215378880500793 0.00308731547556817532
0.477893173694610596 0.178779110312461853 0.152781948447227478
0.286842018365859985 -0.214536160230636597 0.346117228269577026
0.196337059140205383 0.466033518314361572 0.26508098840713501
0.554636359214782715 0.11895153671503067 0.188177034258842468
0.430263698101043701 -0.0827357321977615356 0.305235117673873901
0.550538182258605957 0.129874810576438904 0.246794536709785461
0.382316291332244873 -0.0968456193804740906 0.397547245025634766
0.10966598242521286 -0.362192898988723755 0.332709550857543945
0.45593559741973877 0.350008904933929443 0.13005983829498291
-0.180654272437095642 -0.420220911502838135 0.407777696847915649
0.506384611129760742 0.064786471426486969 0.301475703716278076
0.236633777618408203 0.465099215507507324 0.327547669410705566
0.361085712909698486 -0.169764459133148193 0.347432971000671387
0.28399360179901123 0.44566306471824646 0.260969936847686768
0.103747479617595673 -0.369274020195007324 0.314752399921417236
-0.26802361011505127 -0.431282341480255127 0.418743818998336792
0.0761876776814460754 -0.373702704906463623 0.338749498128890991
0.284297257661819458 -0.27063065767288208 0.336038410663604736
0.180672615766525269 -0.29805678129196167 0.327084273099899292
0.0246319696307182312 -0.376201331615447998 0.335012555122375488
0.544357717037200928 0.20132271945476532 0.170661166310310364
0.45488324761390686 0.340538382530212402 0.110885024070739746
0.328227132558822632 0.450854033231735229 0.251861214637756348
0.178093641996383667 -0.351139456033706665 0.31691548228263855
0.475834846496582031 0.0359519012272357941 0.294027537107467651
-0.0885919481515884399 -0.407762378454208374 0.321381330490112305
0.223478421568870544 -0.320776194334030151 0.332099050283432007
0.289974629878997803 0.458368688821792603 0.258221298456192017
0.126432597637176514 -0.376432240009307861 0.294115900993347168
0.519033849239349365 0.248227611184120178 0.0101515613496303558
0.332818210124969482 -0.191106393933296204 0.383480608463287354
-0.216095343232154846 -0.406244009733200073 0.408171415328979492
0.453497469425201416 0.210892200469970703 0.0991551205515861511
0.41900324821472168 0.321350842714309692 0.0935398563742637634
0.44661402702331543 0.300833940505981445 0.134520202875137329
0.133127361536026001 0.465949088335037231 0.297404587268829346
-0.0610760971903800964 -0.414469867944717407 0.342197537422180176
0.540752828121185303 0.340803027153015137 0.0632455572485923767
0.538526952266693115 0.250676661729812622 0.00608039088547229767
0.270355343818664551 -0.146054178476333618 0.344778001308441162
0.413895457983016968 -0.126258715987205505 0.371882259845733643
-0.557779371738433838 -0.408506810665130615 0.398743897676467896
0.0306440256536006927 -0.385802656412124634 0.355165451765060425
0.12854786217212677 0.486065685749053955 0.288694232702255249
0.260852187871932983 0.482744544744491577 0.2868843674659729
0.363373011350631714 0.389164239168167114 0.196714252233505249
0.389201492071151733 -0.107882775366306305 0.367138326168060303
0.278167605400085449 0.432212144136428833 0.24547964334487915
0.507375419139862061 0.172922000288963318 0.114145286381244659
0.522518754005432129 0.233280345797538757 -1.27224266179837286e-05
0.145023763179779053 0.429267227649688721 0.35394740104675293
0.0508017204701900482 0.499345988035202026 0.327433556318283081
0.477129042148590088 -0.0439764149487018585 0.356844723224639893
0.49277728796005249 0.305696994066238403 0.102176927030086517
-0.636322259902954102 -0.316234678030014038 0.387993186712265015
0.428358852863311768 0.285988003015518188 0.10777292400598526
0.494502544403076172 0.169886469841003418 0.181893259286880493
0.606263935565948486 0.255473792552947998 0.0412787273526191711
0.540395975112915039 0.180360257625579834 0.121690057218074799
0.308410227298736572 -0.218631401658058167 0.31030610203742981
0.253721266984939575 -0.265965789556503296 0.392938196659088135
0.092661932110786438 -0.350244969129562378 0.347406059503555298
0.40889286994934082 -0.117325596511363983 0.371725171804428101
0.275913089513778687 -0.273734867572784424 0.343549638986587524
0.381007999181747437 -0.141765028238296509 0.324336439371109009
-0.483067423105239868 -0.469452559947967529 0.397033274173736572
-0.162146255373954773 -0.415766865015029907 0.457504183053970337
0.121063418686389923 -0.345134079456329346 0.32285115122795105
0.239422619342803955 -0.25755918025970459 0.287653446197509766
0.550602555274963379 0.289822489023208618 0.032031230628490448
0.502308189868927002 0.233675599098205566 -0.0341090485453605652
0.0444669909775257111 0.496283501386642456 0.304904252290725708
0.515295088291168213 0.234812706708908081 -0.0374816656112670898
0.364353716373443604 0.314824610948562622 0.180368050932884216
0.536697149276733398 0.0927053168416023254 0.252771288156509399
0.494394510984420776 0.11195778101682663 0.243452787399291992
0.212831437587738037 0.430842608213424683 0.322583705186843872
0.0710412338376045227 -0.380832195281982422 0.367632478475570679
0.49552309513092041 0.00442876480519771576 0.314046889543533325
0.229063987731933594 0.47503429651260376 0.271536409854888916
0.485208660364151001 0.166282176971435547 0.25562712550163269
0.0805620178580284119 -0.363438606262207031 0.310441851615905762
0.430110692977905273 0.299345612525939941 0.133915066719055176
0.231179416179656982 0.444002389907836914 0.332964420318603516
-0.587764203548431396 -0.386622577905654907 0.398143738508224487
0.356511920690536499 -0.119250796735286713 0.354170382022857666
0.326185494661331177 0.457929402589797974 0.200791403651237488
-0.613714218139648438 -0.374143421649932861 0.38420182466506958
0.561427474021911621 0.218510434031486511 0.089436650276184082
0.530362427234649658 0.124466359615325928 0.267742186784744263
0.44959530234336853 -0.080342121422290802 0.361205041408538818
0.395384013652801514 -0.152962878346443176 0.361701309680938721
0.464829891920089722 -0.066799357533454895 0.326095521450042725
0.272918164730072021 -0.2746715247631073 0.322683632373809814
0.560945987701416016 0.265604913234710693 0.0614590048789978027
0.378228664398193359 -0.183575958013534546 0.307997018098831177
-0.602381348609924316 -0.413434088230133057 0.408015668392181396
0.523482024669647217 0.246438726782798767 0.0440060459077358246
0.32294800877571106 0.457362353801727295 0.26915249228477478
0.118605673313140869 0.465248346328735352 0.294503390789031982
0.375088006258010864 -0.157044753432273865 0.352328032255172729
0.0631190836429595947 0.493497073650360107 0.294959694147109985
0.528139948844909668 0.10753350704908371 0.239917159080505371
0.547721385955810547 0.108650878071784973 0.274617224931716919
0.527825415134429932 0.292630016803741455 0.0700470209121704102
0.552493512630462646 0.247091025114059448 0.0661852583289146423
-0.330604285001754761 -0.427105069160461426 0.373543292284011841
0.502226114273071289 0.151832118630409241 0.204759269952774048
0.263751000165939331 0.429318517446517944 0.262862920761108398
0.301028043031692505 -0.196002349257469177 0.380033552646636963
0.23768383264541626 -0.292178481817245483 0.41295921802520752
0.0401760339736938477 -0.396436154842376709 0.330168783664703369
0.540654957294464111 0.246005997061729431 -0.0380526520311832428
0.522557079792022705 -0.0524049624800682068 0.350803464651107788
0.389421552419662476 -0.0979686006903648376 0.371467143297195435
0.558884203433990479 0.182371646165847778 0.135338142514228821
0.445977926254272461 -0.0120683489367365837 0.326708316802978516
0.314756333827972412 0.422030746936798096 0.270950853824615479
0.451451212167739868 -0.0177818387746810913 0.328578442335128784
0.209601134061813354 -0.308822661638259888 0.287879407405853271
0.151559442281723022 0.469259470701217651 0.285768389701843262
0.382574468851089478 0.387432485818862915 0.199630096554756165
0.502701401710510254 0.26280561089515686 -0.0728665515780448914
0.40141981840133667 -0.163577079772949219 0.406632989645004272
0.562728583812713623 0.296522468328475952 0.0383109003305435181
0.347206801176071167 -0.120577216148376465 0.401855528354644775
-0.116237089037895203 -0.41273045539855957 0.344173908233642578
0.318414300680160522 -0.188471376895904541 0.41805422306060791
-0.315608173608779907 -0.433417588472366333 0.38654327392578125
0.560483694076538086 0.266759723424911499 0.0199566278606653214
0.541553020477294922 0.174818933010101318 0.185626894235610962
0.520633935928344727 0.319679021835327148 0.146608337759971619
-0.645912110805511475 -0.41014564037322998 0.378121107816696167
0.53541266918182373 0.266492635011672974 0.0826976299285888672
0.502058446407318115 0.229718714952468872 -0.0241151954978704453
0.0788408592343330383 0.509131848812103271 0.280778974294662476
0.273443341255187988 0.390561431646347046 0.174656316637992859
0.576119899749755859 0.217184007167816162 0.0898709744215011597
0.534780561923980713 0.248674079775810242 -0.0334920026361942291
0.00974268745630979538 -0.359201550483703613 0.355203211307525635
0.512742578983306885 0.138931095600128174 0.250026494264602661
0.131724908947944641 -0.325798064470291138 0.352193355560302734
0.245313942432403564 0.509252488613128662 0.283286333084106445
0.339476913213729858 -0.151890754699707031 0.386442631483078003
0.526571273803710938 0.248595535755157471 -0.00275622843764722347
0.387459784746170044 -0.194396078586578369 0.327330172061920166
0.184661641716957092 0.439815878868103027 0.347853153944015503
0.0798429101705551147 0.491927206516265869 0.282491475343704224
0.310364782810211182 0.399527281522750854 0.271064013242721558
-0.216349244117736816 -0.435517430305480957 0.417011648416519165
0.110894151031970978 0.50751650333404541 0.27445414662361145
0.556835532188415527 0.249649792909622192 0.117182433605194092
0.520296812057495117 0.0578386187553405762 0.248783811926841736
0.505978524684906006 0.132312312722206116 0.237064838409423828
0.299869894981384277 -0.244501039385795593 0.361432522535324097
0.248942092061042786 0.46088719367980957 0.307066291570663452
0.32152751088142395 -0.159743249416351318 0.3194732666015625
-0.187197640538215637 -0.418168008327484131 0.431858420372009277
0.282870322465896606 -0.211643785238265991 0.369329839944839478
-0.166314959526062012 -0.446093589067459106 0.369554996490478516
0.0730975642800331116 -0.402742743492126465 0.349902749061584473
0.219068408012390137 -0.304583996534347534 0.308605760335922241
0.0870464444160461426 0.492100447416305542 0.288118839263916016
0.249302923679351807 0.429033607244491577 0.307561486959457397
0.315264046192169189 -0.265693902969360352 0.413944989442825317
0.212431266903877258 0.468651264905929565 0.281241834163665771
0.162742733955383301 -0.311670571565628052 0.324046432971954346
0.0349618569016456604 0.496011406183242798 0.311625748872756958
0.26741635799407959 -0.286957979202270508 0.350177347660064697
0.436923086643218994 0.279336124658584595 0.135421022772789001
0.573971211910247803 0.278459668159484863 0.0268583986908197403
-0.601713120937347412 -0.39780348539352417 0.385361701250076294
0.122058309614658356 0.462572216987609863 0.384146690368652344
0.414871305227279663 0.296912014484405518 0.175951167941093445
0.381034225225448608 -0.155131444334983826 0.333850502967834473
0.430806845426559448 -0.0785793960094451904 0.382087230682373047
0.215103074908256531 0.41420435905456543 0.264227896928787231
0.505349934101104736 -0.019367516040802002 0.338995277881622314
0.554276466369628906 0.249271780252456665 -0.010214097797870636
0.253498882055282593 -0.312605977058410645 0.341346085071563721
0.489773333072662354 0.12523205578327179 0.281987220048904419
0.573182940483093262 0.237055614590644836 0.012524086982011795
0.423995286226272583 0.365800261497497559 0.142717242240905762
-0.428385496139526367 -0.437063425779342651 0.418657928705215454
0.568580031394958496 0.198901429772377014 0.120197795331478119
-0.54400402307510376 -0.444126993417739868 0.42198336124420166
0.381408035755157471 -0.146927714347839355 0.375387459993362427
-0.143632054328918457 -0.406816005706787109 0.374568849802017212
0.530946493148803711 0.0162751898169517517 0.249268040060997009
0.514874696731567383 0.0154056763276457787 0.306346118450164795
0.577733039855957031 0.259306788444519043 0.0326694399118423462
0.235968649387359619 -0.264545530080795288 0.332958132028579712
0.269172459840774536 0.449913173913955688 0.303745865821838379
0.194032818078994751 0.448427200317382812 0.323106974363327026
0.342662841081619263 0.437902867794036865 0.191979825496673584
0.523766636848449707 0.186382010579109192 0.187426239252090454
0.114204518496990204 0.472811073064804077 0.271767616271972656
0.290429085493087769 -0.240698635578155518 0.379886746406555176
0.182001933455467224 -0.322759777307510376 0.359799414873123169
-0.632115840911865234 -0.305528014898300171 0.362807750701904297
0.348001241683959961 0.42703700065612793 0.268757015466690063
0.485141485929489136 -0.00899398140609264374 0.295120000839233398
0.505673050880432129 0.130661934614181519 0.218910783529281616
0.50675511360168457 0.0351289361715316772 0.338899672031402588
-0.615216195583343506 -0.404141634702682495 0.387088030576705933
0.509193301200866699 0.245026648044586182 -0.0405430607497692108
0.523074567317962646 0.192441880702972412 0.219749107956886292
0.532107532024383545 0.0773422196507453918 0.292032241821289062
0.551599800586700439 0.276826769113540649 0.0121817467734217644
-0.480672478675842285 -0.423039555549621582 0.420260965824127197
0.0402720272541046143 -0.409206807613372803 0.328071832656860352
0.351406723260879517 0.410601049661636353 0.186247542500495911
0.122748114168643951 0.519805729389190674 0.336943924427032471
0.528281748294830322 0.18449835479259491 0.207843482494354248
-0.624603807926177979 -0.340984165668487549 0.392454981803894043
0.420928031206130981 -0.088119208812713623 0.344222098588943481
-0.52033621072769165 -0.431976377964019775 0.424136519432067871
0.603821933269500732 0.23294280469417572 0.0402919426560401917
0.517268359661102295 0.109672710299491882 0.216664835810661316
0.358205318450927734 0.413497805595397949 0.218854531645774841
0.539258122444152832 0.230952069163322449 -0.0195043385028839111
0.32441103458404541 -0.2825431227684021 0.328982830047607422
0.380331486463546753 -0.107279546558856964 0.396039575338363647
0.379183411598205566 -0.149785071611404419 0.346426576375961304
0.519827544689178467 0.291964828968048096 0.0981797128915786743
0.577581286430358887 0.207644462585449219 0.0849451944231987
0.339630216360092163 0.333810955286026001 0.193650469183921814
0.472722709178924561 -0.046124577522277832 0.331888675689697266
0.396415293216705322 -0.106442078948020935 0.325388610363006592
0.362432628870010376 -0.223869696259498596 0.388153135776519775
0.337533146142959595 -0.176137715578079224 0.380365312099456787
-0.61492687463760376 -0.363142281770706177 0.381474852561950684
0.183307364583015442 0.45331186056137085 0.259552747011184692
-0.449030578136444092 -0.403834819793701172 0.459641605615615845
0.59870678186416626 0.237691760063171387 0.0664336904883384705
-0.464090347290039062 -0.431452661752700806 0.397904008626937866
0.267205357551574707 -0.244566485285758972 0.351508289575576782
0.475929737091064453 0.0353654548525810242 0.302970588207244873
0.59722059965133667 0.299325346946716309 0.0884914025664329529
0.416543751955032349 -0.0157663282006978989 0.350426912307739258
0.239785432815551758 -0.295807003974914551 0.370014369487762451
0.58592456579208374 0.178615808486938477 0.0681543275713920593
0.397164344787597656 0.287245482206344604 0.110221646726131439
0.359611004590988159 0.353249162435531616 0.166310772299766541
0.102057769894599915 0.50255584716796875 0.262699246406555176
0.548090755939483643 0.22834855318069458 0.00539058912545442581
0.485962092876434326 0.163793802261352539 0.184728890657424927
0.477197110652923584 0.038563266396522522 0.290600597858428955
0.320137917995452881 -0.242190033197402954 0.371335387229919434
0.474754840135574341 0.235255405306816101 -0.0492143668234348297
-0.145912602543830872 -0.416013091802597046 0.369703799486160278
0.107479549944400787 0.423664242029190063 0.353225648403167725
-0.522306561470031738 -0.43922799825668335 0.437518894672393799
-0.539586842060089111 -0.429246872663497925 0.422232061624526978
0.507514774799346924 0.201842442154884338 0.195194512605667114
0.639360487461090088 0.2383241206407547 0.041529923677444458
0.527329146862030029 0.256976842880249023 -0.0257916636765003204
0.542764961719512939 0.280375748872756958 -0.0248698517680168152
0.600943922996520996 0.245489552617073059 0.075552918016910553
-0.47818031907081604 -0.435883373022079468 0.44101417064666748
0.530512809753417969 0.0829480588436126709 0.277193337678909302
0.52321547269821167 0.285337388515472412 0.0295134056359529495
0.456873148679733276 -0.00528816599398851395 0.284623205661773682
0.336444765329360962 -0.0786100924015045166 0.362672209739685059
0.571250319480895996 0.203387632966041565 0.153533443808555603
0.317004919052124023 -0.079084351658821106 0.359351575374603271
0.541675329208374023 0.214249998331069946 -0.054978594183921814
0.383689999580383301 0.357641637325286865 0.194857180118560791
0.30956682562828064 0.44455718994140625 0.27051272988319397
0.556728780269622803 0.222707256674766541 0.0872212052345275879
0.413364529609680176 -0.0652167052030563354 0.353568375110626221
0.483287394046783447 0.339847832918167114 0.0664865672588348389
0.287599563598632812 -0.293814599514007568 0.358529835939407349
0.359755903482437134 0.31011548638343811 0.128635182976722717
0.517679572105407715 0.295594930648803711 0.0654280781745910645
0.28135216236114502 -0.260792076587677002 0.382508158683776855
0.473139375448226929 -0.109456807374954224 0.370451748371124268
-0.0211796201765537262 0.490880817174911499 0.293210893869400024
0.189109176397323608 -0.261952221393585205 0.30104905366897583
0.259393304586410522 -0.298598915338516235 0.326153695583343506
-0.526561439037322998 -0.42483791708946228 0.413557618856430054
0.517917752265930176 0.0985211879014968872 0.278289258480072021
0.521741747856140137 0.114499278366565704 0.212664991617202759
0.46527436375617981 -0.087015300989151001 0.333324342966079712
0.0458746440708637238 0.502180933952331543 0.247243613004684448
0.0753856673836708069 0.498384863138198853 0.266907006502151489
0.581415832042694092 0.240132793784141541 0.0720426663756370544
0.373899072408676147 0.390363752841949463 0.19338679313659668
0.385437339544296265 -0.105264090001583099 0.364744812250137329
0.541511416435241699 0.135815635323524475 0.235105261206626892
0.330426454544067383 -0.168759360909461975 0.382522672414779663
0.178968816995620728 0.47745048999786377 0.30766594409942627
-0.63532710075378418 -0.363508164882659912 0.3742503821849823
0.33832937479019165 0.3567923903465271 0.204664438962936401
0.312897413969039917 -0.212531343102455139 0.355152875185012817
0.50394904613494873 0.0603571347892284393 0.262695044279098511
-0.328191667795181274 -0.419645339250564575 0.379298597574234009
0.605636715888977051 0.175184831023216248 0.1327056884765625
0.527848720550537109 0.0168567411601543427 0.293606847524642944
-0.651526808738708496 -0.30888599157333374 0.355309247970581055
-0.013520391657948494 0.49413260817527771 0.315515369176864624
0.485077053308486938 0.25259062647819519 -0.00272279698401689529
0.629558682441711426 0.201708137989044189 0.0932622253894805908
0.00222064275294542313 0.493068844079971313 0.272162050008773804
-0.645474731922149658 -0.336466282606124878 0.377430588006973267
0.556806504726409912 0.172637999057769775 0.210154548287391663
0.252064526081085205 -0.318801552057266235 0.362387478351593018
-0.482318371534347534 -0.420733451843261719 0.46231609582901001
0.481857150793075562 0.155157715082168579 0.196671426296234131
0.305959224700927734 -0.289785951375961304 0.353960275650024414
-0.500801563262939453 -0.417575597763061523 0.433478564023971558
0.314203023910522461 -0.305610090494155884 0.38496553897857666
0.236992016434669495 -0.289284944534301758 0.337207973003387451
0.163861855864524841 0.416430026292800903 0.268324196338653564
0.556149184703826904 0.283471971750259399 0.0480122938752174377
0.484376609325408936 0.0702232643961906433 0.261532396078109741
0.493952900171279907 0.00336094480007886887 0.325288265943527222
0.506688237190246582 0.163563668727874756 0.207826107740402222
0.14535801112651825 0.460860550403594971 0.296462744474411011
0.461500316858291626 0.0167571809142827988 0.28992125391960144
0.567445993423461914 0.172475516796112061 0.163553729653358459
0.518455982208251953 0.0386273749172687531 0.304074645042419434
-0.129118621349334717 -0.424051135778427124 0.399448126554489136
0.560498356819152832 0.305616140365600586 0.026141071692109108
0.0120579730719327927 0.501039981842041016 0.315101206302642822
0.463335037231445312 0.00478185899555683136 0.321100503206253052
0.513334870338439941 0.289046555757522583 0.101146839559078217
-0.449689775705337524 -0.442472606897354126 0.441720128059387207
0.256256669759750366 0.436324983835220337 0.298283427953720093
0.0117878392338752747 0.500955462455749512 0.29981231689453125
0.411873221397399902 -0.0808234065771102905 0.355523049831390381
0.582482278347015381 0.180468469858169556 0.113154187798500061
0.369401812553405762 0.351783663034439087 0.1374712735414505
0.482235133647918701 0.119525037705898285 0.221573710441589355
0.411688655614852905 -0.150727927684783936 0.342201650142669678
0.345021694898605347 -0.170580029487609863 0.378966540098190308
0.355849951505661011 0.38448643684387207 0.242997229099273682
0.63043677806854248 0.239510715007781982 0.0507047586143016815
0.519696712493896484 0.264548718929290771 0.0599971264600753784
0.276946455240249634 0.480855733156204224 0.249267891049385071
0.42479744553565979 -0.0454695001244544983 0.296212434768676758
0.475165277719497681 0.313477665185928345 0.108720667660236359
-0.136865720152854919 -0.414829432964324951 0.338351845741271973
0.482762545347213745 0.276445150375366211 -0.00636468175798654556
0.0713326260447502136 -0.36261904239654541 0.339845925569534302
-0.611882805824279785 -0.406431019306182861 0.393153399229049683
0.26199379563331604 0.456373274326324463 0.344009757041931152
-0.655848145484924316 -0.31434863805770874 0.387682467699050903
0.487708836793899536 0.0725450888276100159 0.331451743841171265
0.494418114423751831 0.140448972582817078 0.218420445919036865
0.501358389854431152 0.0571759194135665894 0.304319798946380615
0.357182115316390991 0.376052826642990112 0.167373225092887878
0.53982919454574585 0.267091929912567139 0.0457932539284229279
0.512891054153442383 0.283348381519317627 0.0327047333121299744
0.341064453125 0.388407617807388306 0.218031749129295349
0.568406403064727783 0.233133897185325623 0.0689711496233940125
0.464105397462844849 0.233228251338005066 0.120906732976436615
0.540381014347076416 0.126618281006813049 0.172274470329284668
0.492024511098861694 0.0529618673026561737 0.333501189947128296
0.26764407753944397 -0.273562788963317871 0.378436356782913208
0.412540942430496216 0.272576957941055298 0.0812276899814605713
0.246316850185394287 -0.288044989109039307 0.354860901832580566
-0.355280101299285889 -0.47126355767250061 0.384010255336761475
0.535405457019805908 0.132586106657981873 0.259562969207763672
0.559911727905273438 0.22434060275554657 0.0328648127615451813
0.248061567544937134 0.458882719278335571 0.272375345230102539
0.393694937229156494 -0.105118907988071442 0.325389653444290161
0.366932988166809082 -0.161993667483329773 0.343109130859375
0.555614054203033447 0.253008812665939331 0.0864911675453186035
0.472816139459609985 0.0225511062890291214 0.332285076379776001
0.482883274555206299 0.0161837488412857056 0.33071783185005188
0.134670719504356384 0.481497436761856079 0.290377378463745117
0.313923448324203491 -0.261938095092773438 0.311407178640365601
0.611213862895965576 0.231182783842086792 0.080458126962184906
0.53425133228302002 0.0927095040678977966 0.225642815232276917
0.0734179988503456116 -0.367149442434310913 0.324480652809143066
0.301529973745346069 -0.118797071278095245 0.360609948635101318
0.258837699890136719 0.429740667343139648 0.23715074360370636
0.270251601934432983 0.478374719619750977 0.304939508438110352
0.321374982595443726 -0.270579725503921509 0.308945000171661377
-0.649798035621643066 -0.324350088834762573 0.372267216444015503
-0.000884925015270709991 -0.402699977159500122 0.352605164051055908
0.520066976547241211 0.285472780466079712 0.0712124481797218323
0.309128761291503906 -0.261549800634384155 0.345687150955200195
0.473306417465209961 0.195374101400375366 0.143603146076202393
0.518347501754760742 0.205673053860664368 0.127755790948867798
-0.632934451103210449 -0.400179028511047363 0.393269181251525879
0.373525291681289673 -0.132348909974098206 0.377371251583099365
0.295327067375183105 0.436449795961380005 0.273245185613632202
0.396446406841278076 -0.106276705861091614 0.369456976652145386
0.320019185543060303 -0.140128359198570251 0.38796764612197876
-0.0481278225779533386 -0.397005140781402588 0.353077501058578491
0.395190000534057617 -0.101112827658653259 0.312252283096313477
0.565436899662017822 0.30419650673866272 -0.00459524895995855331
0.554960966110229492 0.22210751473903656 0.0189261417835950851
0.511900007724761963 0.285623848438262939 0.0763784795999526978
0.394168555736541748 0.357651084661483765 0.214986488223075867
0.353556901216506958 -0.20386214554309845 0.326293140649795532
0.513370871543884277 0.133552923798561096 0.248860836029052734
0.339016854763031006 0.394898086786270142 0.202395230531692505
0.529136300086975098 0.146019190549850464 0.165340423583984375
0.219951286911964417 -0.266097575426101685 0.33363381028175354
0.492259472608566284 0.176911830902099609 0.220139205455780029
-0.106268614530563354 -0.405707389116287231 0.339439928531646729
0.476463496685028076 0.00106006197165697813 0.343545645475387573
0.379936724901199341 -0.157301917672157288 0.38734513521194458
0.532657086849212646 0.308476239442825317 0.0598426274955272675
0.464124977588653564 0.152911990880966187 0.276503473520278931
0.355811744928359985 0.388440757989883423 0.184999555349349976
0.550089657306671143 0.198471128940582275 0.0848751738667488098
0.323038548231124878 -0.208174064755439758 0.297229796648025513
0.515593290328979492 0.123988345265388489 0.251937657594680786
-0.0900948718190193176 -0.414713829755783081 0.314306944608688354
0.261412680149078369 0.463350474834442139 0.323522776365280151
0.543417572975158691 0.162870302796363831 0.179060459136962891
0.498265951871871948 0.131450474262237549 0.219820961356163025
0.429383069276809692 0.293503940105438232 0.128930598497390747
0.47332426905632019 0.32604217529296875 0.119003154337406158
0.319913208484649658 0.409979373216629028 0.241502851247787476
0.524348795413970947 0.157854244112968445 0.176930025219917297
0.544136285781860352 0.125530481338500977 0.230232164263725281
0.539841055870056152 0.24305310845375061 0.0504868030548095703
-0.194456756114959717 -0.421415746212005615 0.414911150932312012
0.453055351972579956 0.00212841108441352844 0.364290088415145874
0.383894830942153931 0.350386947393417358 0.171965673565864563
-0.556558847427368164 -0.431087374687194824 0.395834267139434814
0.088926367461681366 0.528067886829376221 0.264924705028533936
-0.0131808239966630936 -0.392809391021728516 0.347192317247390747
-0.133639737963676453 -0.454845815896987915 0.366357475519180298
0.504410445690155029 0.247399806976318359 -0.0445496812462806702
0.224603772163391113 0.438603192567825317 0.309635937213897705
0.542043864727020264 0.181305199861526489 0.149133250117301941
0.557626724243164062 -0.0363544709980487823 0.306243032217025757
0.52124255895614624 0.1351766437292099 0.199069544672966003
0.525118887424468994 0.157554805278778076 0.163978248834609985
0.211488261818885803 0.47098994255065918 0.281097322702407837
0.411244422197341919 -0.176155462861061096 0.382966428995132446
0.322083503007888794 -0.220949277281761169 0.381359845399856567
0.366960287094116211 -0.112364143133163452 0.341457664966583252
-0.159457504749298096 -0.406468451023101807 0.405563682317733765
0.00806044600903987885 0.484535008668899536 0.303075909614562988
0.440912902355194092 -0.0671091973781585693 0.345538437366485596
0.618434369564056396 0.220963805913925171 0.122379489243030548
0.556119024753570557 0.274528980255126953 -0.00657281419262290001
0.386917203664779663 0.342267066240310669 0.111020281910896301
0.0317270085215568542 0.506555855274200439 0.297110974788665771
0.210402682423591614 -0.338269740343093872 0.297106236219406128
0.482350707054138184 0.382313787937164307 0.103486306965351105
0.491496562957763672 0.0422055870294570923 0.308895468711853027
0.179621264338493347 -0.294838279485702515 0.299648165702819824
-0.205545291304588318 -0.44593396782875061 0.41145014762878418
-0.38366401195526123 -0.427958637475967407 0.425086319446563721
0.481733083724975586 -0.0974924564361572266 0.350261837244033813
0.519990682601928711 0.205889463424682617 0.201715081930160522
0.596814811229705811 0.252091884613037109 0.0121533041819930077
0.420809328556060791 0.35727730393409729 0.21675322949886322
0.268265724182128906 0.444995641708374023 0.276670277118682861
0.50435715913772583 0.127816364169120789 0.241642922163009644
0.554442942142486572 0.226836606860160828 -0.00467262323945760727
0.650176823139190674 0.269095182418823242 0.0223698727786540985
0.107637517154216766 -0.324829727411270142 0.356299757957458496
-0.0888391733169555664 -0.427000373601913452 0.349392592906951904
0.154969274997711182 0.484029799699783325 0.290865689516067505
0.464772135019302368 0.328659117221832275 0.0880487561225891113
0.39312627911567688 0.337858080863952637 0.139850720763206482
0.545650362968444824 -0.0278121586889028549 0.363296359777450562
0.0105312047526240349 -0.382882922887802124 0.351833492517471313
0.378876030445098877 -0.141170844435691833 0.374619334936141968
0.359150707721710205 0.28568190336227417 0.130549013614654541
-0.636029243469238281 -0.353902697563171387 0.369455784559249878
-0.618681013584136963 -0.396540045738220215 0.405361533164978027
0.447404444217681885 0.276134759187698364 0.0885473862290382385
-0.14528203010559082 -0.433934807777404785 0.336094975471496582
0.474534809589385986 0.217939987778663635 -0.0165029671043157578
0.537413239479064941 0.299773931503295898 0.0602354817092418671
0.571108639240264893 0.257139921188354492 0.0794422328472137451
0.481580495834350586 -0.0254689231514930725 0.339319199323654175
0.391806960105895996 0.361302882432937622 0.214732468128204346
0.386820226907730103 -0.13122384250164032 0.349481523036956787
0.318508952856063843 0.394900679588317871 0.219808682799339294
0.316619753837585449 0.374934256076812744 0.165218234062194824
0.528676688671112061 0.156212270259857178 0.17530784010887146
-0.64273536205291748 -0.317344516515731812 0.362212598323822021
0.322293102741241455 0.350254446268081665 0.161575093865394592
0.474758297204971313 -0.0113440863788127899 0.313634753227233887
0.544803440570831299 0.329441279172897339 -0.0347873382270336151
0.519195318222045898 0.248887643218040466 -0.0389715619385242462
0.520768165588378906 0.22761458158493042 0.0806579887866973877
0.532995522022247314 -0.0124212326481938362 0.250286757946014404
-0.00189290998969227076 0.501627683639526367 0.287048488855361938
0.507490336894989014 0.261130750179290771 -0.0378821976482868195
0.444315314292907715 0.288528233766555786 0.10958804190158844
0.545329928398132324 0.196170106530189514 0.165329635143280029
0.326436638832092285 -0.173855781555175781 0.419311851263046265
0.486137062311172485 0.0754528120160102844 0.305630326271057129
0.497102349996566772 0.177157163619995117 0.248017549514770508
0.314765900373458862 -0.230461150407791138 0.348325222730636597
0.497951358556747437 0.0162747558206319809 0.307774454355239868
-0.148193463683128357 -0.443169891834259033 0.372570216655731201
0.148585066199302673 -0.381412416696548462 0.323309272527694702
0.511313915252685547 0.229473024606704712 -0.0295957177877426147
-0.00100068200845271349 -0.422255337238311768 0.331661850214004517
0.554383575916290283 0.289432287216186523 0.0320548564195632935
-0.59995192289352417 -0.405161380767822266 0.391694247722625732
0.417356520891189575 -0.0732610374689102173 0.314536541700363159
0.522050023078918457 0.0794997066259384155 0.262158483266830444
-0.207908496260643005 -0.429689168930053711 0.446752965450286865
-0.259114712476730347 -0.429603099822998047 0.418993949890136719
0.301469802856445312 0.389125406742095947 0.207815065979957581
0.542116105556488037 0.261258840560913086 -0.0179999582469463348
0.494587808847427368 0.260313183069229126 -0.0157216079533100128
0.120827965438365936 0.505017518997192383 0.282440871000289917
0.291649997234344482 -0.252652376890182495 0.348772704601287842
0.124949835240840912 -0.346771001815795898 0.345213830471038818
0.1028437539935112 0.480892479419708252 0.274965077638626099
