ply
format ascii 1.0
element vertex 751
comment vertices
property float x
property float y
property float z
end_header
0.177602276206016541 -0.516597151756286621 -0.111619323492050171
-1.6679084300994873 -0.434978604316711426 -0.538431525230407715
-0.430625081062316895 -0.330053627490997314 -0.258356541395187378
-0.732855319976806641 0.453272819519042969 0.276800781488418579
0.60753476619720459 -0.0814835205674171448 1.12169373035430908
0.158499032258987427 -0.261904686689376831 -0.833129167556762695
0.237241744995117188 -1.18602907657623291 -0.993696868419647217
-0.363645553588867188 1.32533740997314453 -0.973882555961608887
-1.02707540988922119 0.679401636123657227 -0.0853733941912651062
1.57547473907470703 -0.211900025606155396 0.501700937747955322
-0.714915871620178223 1.28578674793243408 0.291030347347259521
0.347301363945007324 -1.08004558086395264 1.50148582458496094
1.60931313037872314 -0.165698930621147156 -0.166307717561721802
-1.36076593399047852 0.17546999454498291 -0.163875788450241089
-0.180063590407371521 0.391393512487411499 0.291100829839706421
1.22489666938781738 -0.965464472770690918 0.670467197895050049
-0.745294809341430664 0.919433295726776123 -1.0077974796295166
-0.767657160758972168 0.485600888729095459 -0.435583114624023438
-0.537128031253814697 -0.19716295599937439 -0.169660449028015137
0.837788760662078857 0.285233289003372192 -0.564523756504058838
-0.36825186014175415 0.307732313871383667 1.54664778709411621
0.461059063673019409 -1.01633620262145996 -0.37439960241317749
-0.3439827561378479 -0.0919640138745307922 1.75164306163787842
-0.481038928031921387 0.66286003589630127 -0.134240835905075073
-0.671781361103057861 -0.483958214521408081 -1.28357851505279541
-1.08909952640533447 -0.248870357871055603 -0.84487307071685791
0.23534858226776123 -0.599625885486602783 0.344539493322372437
0.860776782035827637 0.780591487884521484 -0.0197791978716850281
-0.883687138557434082 0.654294073581695557 -0.447703719139099121
-0.760647714138031006 0.861757338047027588 -2.45092320442199707
0.0715457499027252197 -1.25271213054656982 1.22944724559783936
-0.364787131547927856 -1.56496703624725342 1.12106037139892578
0.904015481472015381 -1.23671996593475342 0.807474315166473389
-1.53196120262145996 -1.45889902114868164 -1.08464288711547852
-0.201073646545410156 -0.568461418151855469 0.824547231197357178
0.722153127193450928 -0.415078163146972656 -1.42449367046356201
-0.392595887184143066 0.297082632780075073 -0.0927293524146080017
-0.580801308155059814 0.312255501747131348 1.16772568225860596
-0.33266487717628479 0.121923163533210754 -0.46071895956993103
1.25850284099578857 0.600463509559631348 -0.242854923009872437
0.116399914026260376 -0.436499595642089844 -0.514968514442443848
-0.388331085443496704 0.417313516139984131 -0.335180968046188354
0.110839411616325378 -0.639211773872375488 -1.91908359527587891
-0.0618392378091812134 0.769737541675567627 -1.07265114784240723
-0.261508703231811523 -1.01296985149383545 0.816323757171630859
-0.420354127883911133 1.09527313709259033 0.785540878772735596
-0.443174600601196289 0.151446670293807983 -1.18036723136901855
1.01420164108276367 0.713171601295471191 1.12832534313201904
-0.49896848201751709 -0.580813050270080566 1.20626819133758545
0.420942932367324829 -2.52571582794189453 0.0165733993053436279
0.594965219497680664 1.14694440364837646 -0.714361786842346191
0.291683971881866455 0.228855937719345093 -1.46315467357635498
0.264862328767776489 0.34441608190536499 0.64333045482635498
0.462638616561889648 0.605250716209411621 -0.151608362793922424
0.606079220771789551 0.804333686828613281 -0.301368117332458496
1.37835323810577393 -0.5095062255859375 -0.586782515048980713
0.10712122917175293 0.347381651401519775 -1.42799007892608643
-0.331340372562408447 -1.12664699554443359 -0.011686861515045166
0.445025652647018433 -0.272779345512390137 0.918928980827331543
0.710731387138366699 0.306156694889068604 1.43564450740814209
0.408038735389709473 -0.430754363536834717 -0.349709242582321167
-1.48569178581237793 1.61399352550506592 -2.34856677055358887
-0.397565722465515137 1.37878584861755371 1.54952895641326904
-0.139873653650283813 0.53435903787612915 -0.533070683479309082
-0.251118302345275879 1.92186069488525391 -0.998477935791015625
1.39716434478759766 0.230662137269973755 0.587787389755249023
0.241129323840141296 -0.113287307322025299 -0.86455690860748291
-1.17734396457672119 0.213553979992866516 1.8958430290222168
-0.0397115722298622131 -0.100396193563938141 2.09513354301452637
0.265097051858901978 -0.333482861518859863 -0.81187516450881958
0.0227161422371864319 0.681095778942108154 1.21921694278717041
-0.812821745872497559 -1.14423465728759766 0.859742581844329834
-0.44226345419883728 0.502652585506439209 -0.197904407978057861
0.726828098297119141 0.912340402603149414 -0.968554973602294922
-0.215457722544670105 0.00632658600807189941 1.13075661659240723
-0.0269024521112442017 -0.0713723450899124146 -0.4255332350730896
-0.738100707530975342 -0.972392737865447998 1.2084420919418335
-1.37421333789825439 -0.199874639511108398 1.09422338008880615
0.393145978450775146 -0.431576579809188843 1.91366863250732422
1.04908120632171631 -0.293364048004150391 0.828784823417663574
0.0954219475388526917 -0.978593707084655762 -0.443413823843002319
-1.02370727062225342 0.900988519191741943 -0.0434547141194343567
0.108080737292766571 -0.289148390293121338 -1.49098360538482666
-1.17374086380004883 -0.647491097450256348 0.64140474796295166
0.553838133811950684 0.649635255336761475 0.116478875279426575
-0.338950455188751221 2.08559823036193848 -0.382883012294769287
-0.0691931620240211487 0.53203427791595459 -0.6286354660987854
0.194623053073883057 -0.0955607295036315918 1.0714038610458374
0.194397807121276855 1.01957130432128906 0.536567091941833496
0.734779953956604004 -1.11695671081542969 -0.387243807315826416
-1.50809848308563232 0.346974849700927734 0.453717857599258423
0.339972317218780518 -1.94302999973297119 -0.366356492042541504
0.923969745635986328 0.220752239227294922 -1.77785873413085938
0.562497317790985107 -0.197055399417877197 -1.07166063785552979
-0.828831791877746582 0.0342477783560752869 0.121064402163028717
0.0522393733263015747 -0.55829387903213501 0.607407450675964355
-0.362799406051635742 -1.38130998611450195 1.47264444828033447
1.11918807029724121 -0.283492118120193481 0.663361072540283203
0.940248727798461914 1.09961533546447754 0.548042118549346924
0.472577959299087524 -2.03150320053100586 0.612190127372741699
0.3333740234375 1.89553642272949219 -1.96844911575317383
-0.239394634962081909 -1.26274967193603516 1.65904784202575684
-1.33163905143737793 -1.16525280475616455 0.342476695775985718
-0.591657102108001709 0.693853616714477539 -0.136932283639907837
0.202532500028610229 -0.219631016254425049 -0.138505712151527405
0.0102056935429573059 0.3355446457862854 1.45851981639862061
-0.392804056406021118 0.0282080620527267456 -0.354251950979232788
0.18097880482673645 -0.556700229644775391 -0.42473873496055603
0.179511129856109619 -0.533689975738525391 0.957326292991638184
0.0473565980792045593 -0.0532728582620620728 0.82638251781463623
-0.469653904438018799 0.00925138592720031738 -0.132619261741638184
-0.188412383198738098 -0.905094504356384277 -0.162923276424407959
1.10892105102539062 -0.44178926944732666 -0.269654363393783569
1.95617198944091797 -0.119018726050853729 0.15862351655960083
-0.14347308874130249 0.916007339954376221 1.26712024211883545
-1.79023873805999756 0.415130943059921265 -0.198101639747619629
-0.217716917395591736 0.313010692596435547 -0.456671983003616333
0.407617568969726562 0.356061577796936035 -0.527110874652862549
-1.30118048191070557 1.61657297611236572 -0.565975964069366455
-0.248027026653289795 -0.92454981803894043 2.00463438034057617
-0.328603982925415039 -0.370179086923599243 -0.0245342552661895752
0.123637787997722626 0.95175403356552124 2.27451324462890625
0.723999559879302979 1.99942588806152344 -0.930067896842956543
1.53190243244171143 0.178399801254272461 -0.217285662889480591
0.357818514108657837 -0.143383905291557312 -1.02368366718292236
0.939349770545959473 -0.169381558895111084 -0.280893415212631226
1.54057145118713379 1.64346992969512939 0.602913737297058105
0.725672602653503418 -0.227795735001564026 0.513459622859954834
-0.326196283102035522 -0.223501801490783691 -0.0695845186710357666
0.987752020359039307 -0.367579549551010132 0.239870592951774597
-0.340692222118377686 -2.55034852027893066 0.471875995397567749
2.27567744255065918 1.2142634391784668 0.48951682448387146
0.764363467693328857 0.823630988597869873 0.863366961479187012
1.31677460670471191 0.322625994682312012 -0.711838424205780029
0.321816623210906982 -1.1128610372543335 -0.424084901809692383
-0.285827666521072388 -1.25091552734375 -0.680701553821563721
-0.52335059642791748 -1.06511104106903076 0.275791734457015991
-0.143378496170043945 -0.166601195931434631 -0.400612771511077881
0.705724179744720459 -0.0913309827446937561 0.252282261848449707
0.0218688249588012695 1.453163743019104 0.198888212442398071
0.587700366973876953 0.188553571701049805 -0.525861740112304688
-0.267663955688476562 0.135645151138305664 -0.137470945715904236
1.33738458156585693 0.839561223983764648 -0.162886679172515869
-0.543115496635437012 -0.767561197280883789 -0.534383296966552734
0.560518920421600342 0.668441176414489746 -1.54497861862182617
0.664425015449523926 0.833964645862579346 -0.546863317489624023
-0.37844771146774292 0.068142816424369812 0.138742521405220032
-0.209998279809951782 0.778783261775970459 1.70058035850524902
-0.0954429954290390015 0.485535860061645508 0.847024440765380859
1.11323606967926025 -0.529984772205352783 -0.778533220291137695
0.652077734470367432 -1.38323283195495605 0.222572281956672668
-0.386314839124679565 1.58228039741516113 0.695719242095947266
-0.527809739112854004 1.28012073040008545 0.233933776617050171
0.689947068691253662 1.42593598365783691 -0.598120689392089844
-0.782944619655609131 1.77881407737731934 0.0116649195551872253
0.906581461429595947 0.296959340572357178 0.418123424053192139
-0.579252123832702637 -0.241833239793777466 -1.00826108455657959
-1.42435610294342041 0.878898084163665771 -0.170670896768569946
0.329354226589202881 -0.616112828254699707 -0.299444854259490967
-0.207834899425506592 1.38614976406097412 -1.25169694423675537
-0.852275848388671875 1.40573394298553467 0.481472939252853394
-0.463275015354156494 0.2661629319190979 -0.729411840438842773
1.41284394264221191 0.536512136459350586 1.36981534957885742
0.328893482685089111 -0.938053131103515625 0.539261043071746826
-0.606514275074005127 0.997775554656982422 -0.598208427429199219
1.32137966156005859 -0.493564635515213013 1.1084667444229126
-0.12895144522190094 0.631348907947540283 0.090518265962600708
1.0690082311630249 -0.658293366432189941 -0.228145554661750793
-2.04028677940368652 0.17420727014541626 -0.947876989841461182
-1.10404491424560547 0.554084300994873047 0.697908937931060791
-0.740265607833862305 -0.779678821563720703 -0.21823294460773468
-0.138375520706176758 -0.699377119541168213 -0.0730031952261924744
0.0854827240109443665 -1.15830469131469727 -1.41288149356842041
-0.920789420604705811 0.442537069320678711 0.135756075382232666
0.157549083232879639 -0.232711255550384521 1.35481417179107666
-0.3407459557056427 -0.132629811763763428 -1.61833512783050537
-2.53406381607055664 0.167774170637130737 0.0203415229916572571
0.0715475752949714661 -0.462901949882507324 -0.0915936082601547241
0.871563076972961426 -2.56303548812866211 1.15280628204345703
0.365493178367614746 -1.03709590435028076 -0.851470053195953369
2.19513702392578125 -0.187475055456161499 0.428964465856552124
-0.0684035420417785645 -0.718464672565460205 -0.218200787901878357
1.83587253093719482 0.730143070220947266 -0.368855297565460205
-0.349557757377624512 0.820411443710327148 0.208161085844039917
0.283003121614456177 0.0920074582099914551 -1.12422668933868408
1.05566644668579102 -1.10897302627563477 -0.277920961380004883
1.68361842632293701 0.248979628086090088 -0.468531608581542969
0.204203963279724121 0.823369503021240234 -0.599912285804748535
-2.2747042179107666 0.676684975624084473 -0.633796334266662598
-2.66940212249755859 0.246285915374755859 0.248829513788223267
1.49797284603118896 0.0287311151623725891 -0.295909017324447632
0.0704497992992401123 0.0033569633960723877 -2.10206007957458496
1.29541456699371338 1.42923319339752197 -1.13443171977996826
1.23447155952453613 0.936593830585479736 -0.855643868446350098
0.346839994192123413 -1.23323428630828857 0.305911719799041748
-1.10881519317626953 0.525067329406738281 0.553858101367950439
0.0578788593411445618 0.0681671798229217529 0.256677865982055664
0.387564182281494141 0.921395063400268555 -0.0575405284762382507
0.573916494846343994 0.871335029602050781 -0.695286929607391357
-0.0206395536661148071 -0.269934594631195068 -0.412273287773132324
1.1017458438873291 0.231144875288009644 -1.2346045970916748
-0.286573857069015503 0.178760319948196411 -1.97994625568389893
-0.505618095397949219 -0.604931950569152832 0.929187476634979248
-0.261438846588134766 0.0247184857726097107 0.42558559775352478
0.169576883316040039 1.04995298385620117 0.457857429981231689
0.584122896194458008 -1.89445924758911133 0.984905123710632324
-0.438566714525222778 0.548185467720031738 0.0229839533567428589
-1.21143913269042969 1.6354755163192749 -0.377373099327087402
0.229558050632476807 2.28157663345336914 0.00741411745548248291
0.772396087646484375 -0.852569997310638428 1.27944350242614746
1.04507219791412354 0.688539624214172363 0.996176064014434814
0.0075381845235824585 -1.42415452003479004 -0.453826546669006348
-3.0721125602722168 0.0820312872529029846 0.0219566449522972107
-0.702499568462371826 -0.950214922428131104 0.11986561119556427
-1.1237642765045166 -0.574446022510528564 -0.937791705131530762
0.893411457538604736 0.327939033508300781 0.031544901430606842
-0.340589344501495361 0.265912920236587524 -0.312305450439453125
1.16800546646118164 -0.191349953413009644 0.825940072536468506
0.368274331092834473 -0.151170939207077026 0.151817023754119873
2.08550620079040527 -0.23705822229385376 0.696956932544708252
0.439576148986816406 -2.07023310661315918 1.17800629138946533
-0.205106884241104126 -0.107575029134750366 -0.262384951114654541
0.571357131004333496 -0.628790378570556641 -0.419888675212860107
-2.13329720497131348 -0.0506574288010597229 0.499592483043670654
1.23103868961334229 -0.742991387844085693 0.784967303276062012
1.21608984470367432 1.08885478973388672 -0.33135223388671875
0.0102087631821632385 0.378958225250244141 -2.45963573455810547
-1.24876880645751953 -0.465582787990570068 -0.322318613529205322
0.710579514503479004 0.684699654579162598 -0.326542943716049194
0.102533787488937378 -0.896053910255432129 0.133553743362426758
-0.688532114028930664 0.818247735500335693 1.40199589729309082
0.876507759094238281 -1.67948389053344727 -0.222433164715766907
-0.375014305114746094 -0.786095082759857178 0.30812564492225647
-1.4265671968460083 0.65328526496887207 -1.8147127628326416
0.387531578540802002 -1.74891221523284912 0.804455935955047607
-0.960788846015930176 0.974117636680603027 0.146148353815078735
2.73201942443847656 -0.0975806564092636108 1.12527453899383545
0.80943065881729126 -0.290755182504653931 -1.43330061435699463
0.199229255318641663 -0.634657204151153564 -0.430572837591171265
0.0708622857928276062 -0.599426031112670898 -0.207390114665031433
-0.230975434184074402 0.857527554035186768 -0.471805036067962646
0.751939952373504639 0.0764322057366371155 0.865785896778106689
-0.274814486503601074 1.92753016948699951 0.0995086580514907837
1.10207271575927734 -1.059609055519104 -1.66087841987609863
-0.223555192351341248 0.296483218669891357 -0.0578571856021881104
0.378184735774993896 0.36518251895904541 -0.991963088512420654
-0.267587006092071533 -1.57822906970977783 0.250244706869125366
-0.993622303009033203 0.33610418438911438 -0.538755595684051514
-0.529227674007415771 -0.0908316001296043396 0.523580312728881836
0.601244628429412842 -0.110124848783016205 -0.950059056282043457
-0.567237734794616699 -0.745982587337493896 1.06707429885864258
-0.647886216640472412 -2.04285597801208496 0.587961316108703613
-0.0956773310899734497 0.997594773769378662 1.49566268920898438
1.0538865327835083 0.496998518705368042 -0.258152633905410767
0.432043910026550293 -0.252965092658996582 -0.559824168682098389
0.197954177856445312 -0.491686314344406128 1.43844664096832275
-1.01848721504211426 0.274968504905700684 -0.0454942584037780762
-0.00680971145629882812 0.969117105007171631 0.145410686731338501
0.336133748292922974 -0.277864962816238403 -1.44510889053344727
0.228891119360923767 1.36420178413391113 0.0180773511528968811
-0.418961077928543091 0.140611231327056885 -0.414265364408493042
-1.06801307201385498 0.517126798629760742 -0.473724722862243652
0.162175476551055908 0.875043034553527832 -0.113296173512935638
-1.48776102066040039 2.00531172752380371 -0.54099804162979126
0.792319893836975098 0.243628710508346558 0.426176488399505615
0.532152354717254639 0.603991270065307617 -0.337236642837524414
-0.827864646911621094 -0.790979981422424316 0.423424661159515381
-0.463221907615661621 0.341973543167114258 -0.528930783271789551
0.0489705502986907959 -0.449751913547515869 0.444553375244140625
0.680607855319976807 -0.201308980584144592 0.300325870513916016
-1.31447744369506836 0.777950406074523926 0.101377353072166443
1.32999944686889648 -0.469375520944595337 1.96325182914733887
-0.263941258192062378 0.0425812080502510071 0.115228839218616486
0.274554401636123657 -0.207672119140625 -0.395826458930969238
-0.184484422206878662 -0.220627397298812866 0.268513202667236328
0.704929530620574951 -1.64828121662139893 -1.24594259262084961
1.3198927640914917 0.0128289386630058289 1.67469596862792969
-0.190990164875984192 0.0240110084414482117 0.501153707504272461
-2.13446044921875 0.318011254072189331 -0.433822333812713623
-1.31381583213806152 0.120448358356952667 0.207570895552635193
0.177540868520736694 -0.636250615119934082 -0.265415579080581665
1.03237509727478027 0.038479931652545929 -0.226219341158866882
-0.237813383340835571 0.0308578386902809143 0.178306043148040771
1.79269134998321533 -0.266333103179931641 0.605812191963195801
-0.0498332381248474121 1.31430816650390625 0.413592219352722168
-2.14039802551269531 -1.60046148300170898 -0.542708754539489746
0.407866984605789185 -1.24754667282104492 -0.767633914947509766
-0.531928658485412598 0.274100750684738159 -0.12101079523563385
0.418699890375137329 0.935322701930999756 0.119062930345535278
0.966866672039031982 -1.87273073196411133 0.319963663816452026
0.552518248558044434 -0.561301589012145996 0.829111814498901367
-0.393203049898147583 0.388993203639984131 -0.362848252058029175
-0.267250001430511475 0.0829018279910087585 1.78979885578155518
-0.506312549114227295 1.83429133892059326 -0.440153360366821289
-0.46324765682220459 0.372554510831832886 -0.908733606338500977
-0.876569688320159912 0.188531249761581421 0.965785622596740723
1.84139633178710938 -0.429219484329223633 -0.65863502025604248
-0.252501726150512695 0.666181206703186035 0.397261172533035278
0.0982642918825149536 0.118820294737815857 1.55901849269866943
-2.92007637023925781 1.00048160552978516 0.112449727952480316
-1.8618323802947998 -0.894677400588989258 0.205170676112174988
-1.30006265640258789 -0.29262128472328186 -1.35377418994903564
0.225771039724349976 -1.03997659683227539 0.026080891489982605
0.210517525672912598 0.653659582138061523 -0.0586130544543266296
0.346896827220916748 -0.907876908779144287 -1.50892877578735352
-0.253968656063079834 -0.0384629741311073303 -0.131573528051376343
0.268252134323120117 -0.941319048404693604 -0.0980517268180847168
0.300342679023742676 1.36408746242523193 -1.49798154830932617
-0.127479016780853271 -0.58688122034072876 0.430707991123199463
0.378527700901031494 1.26299726963043213 0.916115522384643555
-0.287908375263214111 -0.137619525194168091 -0.194950267672538757
-2.01759481430053711 -0.11474522203207016 0.0545491650700569153
-0.672519505023956299 -1.52095711231231689 0.415213286876678467
0.32226032018661499 -2.8354794979095459 -0.181564569473266602
-0.151560500264167786 1.35041987895965576 -0.0761519297957420349
-0.879358172416687012 -0.463881254196166992 -1.10984528064727783
0.0263207331299781799 -0.214712411165237427 -0.325601369142532349
0.016026623547077179 1.86770164966583252 0.335937827825546265
0.358911216259002686 0.571004807949066162 0.100849516689777374
1.11930835247039795 0.475425094366073608 0.826968789100646973
0.804507791996002197 0.535438477993011475 -1.15241456031799316
-0.0752609595656394958 -0.537508666515350342 -0.91453927755355835
0.0589054226875305176 -0.516905486583709717 -0.359660565853118896
0.130312830209732056 -1.35021066665649414 1.26812350749969482
-0.386343479156494141 -0.849292993545532227 -0.202231705188751221
0.68068617582321167 0.700591742992401123 1.64863443374633789
-0.310127586126327515 -0.241527765989303589 -1.24040186405181885
0.0805244296789169312 -0.197260260581970215 1.13685119152069092
0.376724123954772949 -0.268945217132568359 -1.74595534801483154
0.0736886858940124512 0.146318942308425903 -1.33294105529785156
-1.20158720016479492 -0.296658873558044434 -0.308098405599594116
-0.126155614852905273 1.65741407871246338 -0.208114683628082275
1.53453993797302246 0.416981697082519531 -0.213755667209625244
-0.49348798394203186 -0.134218603372573853 0.55635225772857666
-0.614021539688110352 -0.0953759551048278809 -0.110030278563499451
0.865176081657409668 0.709281325340270996 -1.0287860631942749
-0.448457330465316772 0.0840568318963050842 1.43775761127471924
-0.224389374256134033 0.080057881772518158 0.0671771839261054993
-0.62613755464553833 -1.54780805110931396 -0.0383779890835285187
-1.40746533870697021 -1.70063769817352295 1.02558338642120361
-1.05648422241210938 -0.731712937355041504 -0.0877907201647758484
2.12552976608276367 -0.461658507585525513 -0.15077325701713562
-0.220001846551895142 0.862302839756011963 0.294011712074279785
1.33739852905273438 0.108953103423118591 -0.0955896452069282532
-0.188379406929016113 -0.297886043787002563 0.0598987787961959839
-0.632536768913269043 0.213651776313781738 0.320119619369506836
0.694445371627807617 1.52382934093475342 1.19491112232208252
1.38065838813781738 -1.51536333560943604 0.534501314163208008
-0.155403062701225281 1.7223360538482666 -0.201142489910125732
2.40337252616882324 0.488035708665847778 3.17314672470092773
-0.147337734699249268 0.449135094881057739 -1.38418591022491455
-1.93868136405944824 0.565028250217437744 -0.621511638164520264
-0.140208587050437927 -1.1840205192565918 1.31696760654449463
0.390746384859085083 -0.813939750194549561 0.551846563816070557
0.763341248035430908 -0.470452845096588135 -0.233467727899551392
0.949638009071350098 0.801354050636291504 -0.57447969913482666
0.193286851048469543 -2.06431865692138672 -0.908196330070495605
0.371717214584350586 1.46486496925354004 -0.0511026829481124878
-0.175958231091499329 -0.458151757717132568 -0.00736582279205322266
1.27496004104614258 0.247471272945404053 -0.964487373828887939
-0.105951555073261261 -0.178480148315429688 -0.442188531160354614
-0.944242715835571289 -0.461154937744140625 0.144133687019348145
0.296830654144287109 -0.542576909065246582 0.307729899883270264
0.0293530449271202087 -1.12534093856811523 -0.308909952640533447
0.563979983329772949 0.115646108984947205 2.14948439598083496
1.15446007251739502 0.755574464797973633 -1.80224311351776123
-0.126192495226860046 0.34505385160446167 0.172437623143196106
0.216412007808685303 1.32585394382476807 0.287050962448120117
-0.103434853255748749 -1.33957028388977051 1.00763499736785889
-0.349605977535247803 -0.369394958019256592 0.505257189273834229
-0.22389066219329834 1.00064718723297119 -0.31448662281036377
0.192264735698699951 -0.393856823444366455 -0.812719941139221191
-0.241196572780609131 0.556313276290893555 0.599158406257629395
1.18554019927978516 -0.253058910369873047 0.033311106264591217
0.741768836975097656 -0.751734614372253418 0.0359845757484436035
-0.48490336537361145 1.06558632850646973 -0.283103048801422119
-1.07911837100982666 1.64111220836639404 -0.00252125412225723267
1.08395707607269287 -0.809489071369171143 0.613429129123687744
-1.90632104873657227 -0.590865015983581543 0.0827157199382781982
-0.534115254878997803 -0.0815668553113937378 -1.28276276588439941
0.994907855987548828 -0.616542458534240723 1.59689223766326904
0.256945788860321045 -0.140494823455810547 -0.915169298648834229
-1.51661813259124756 -1.49446797370910645 0.649733543395996094
0.101692825555801392 -0.174361735582351685 -0.938033878803253174
-0.095928676426410675 -0.177221149206161499 -0.338377892971038818
0.0437212251126766205 -0.652776539325714111 0.0966649800539016724
-1.34412872791290283 -0.182023018598556519 -0.110665164887905121
0.472104907035827637 -0.152854084968566895 -0.39048430323600769
-0.952663004398345947 0.312517076730728149 -1.16032016277313232
0.553504705429077148 1.88342428207397461 -0.253068834543228149
-1.82940828800201416 0.802952885627746582 -2.59617161750793457
-0.0763781294226646423 0.225327342748641968 -1.52575385570526123
0.240627944469451904 -1.65403079986572266 -0.601871252059936523
0.2573433518409729 0.193043380975723267 -0.696583032608032227
-1.94425952434539795 0.682130992412567139 0.24242362380027771
1.66291141510009766 -0.76877439022064209 -0.404784888029098511
2.40238380432128906 -0.571621417999267578 0.8825225830078125
-0.490811645984649658 0.495428085327148438 -0.134791672229766846
-0.136648759245872498 1.00652933120727539 -1.38383650779724121
0.224055036902427673 0.0936609953641891479 -1.71491634845733643
-1.92021667957305908 -1.15869045257568359 1.33656764030456543
0.521792292594909668 0.408470869064331055 2.11920070648193359
0.165056094527244568 0.495122164487838745 0.55975109338760376
-0.314758032560348511 -0.207082390785217285 0.471769958734512329
-0.862618088722229004 1.09622645378112793 0.637155413627624512
1.87049973011016846 0.0766894817352294922 -0.104768291115760803
-1.44109761714935303 -0.044491596519947052 1.48689723014831543
-1.78598856925964355 0.0210501104593276978 0.0142483636736869812
0.474998444318771362 1.28906941413879395 -1.43305122852325439
0.456382066011428833 -0.132504627108573914 0.459059596061706543
-0.0746755823493003845 -0.216473042964935303 -0.276577532291412354
0.278442621231079102 -0.756455540657043457 -0.141163036227226257
-0.886030435562133789 -0.0423478037118911743 -0.739343702793121338
1.92696452140808105 3.55152726173400879 1.80031538009643555
0.508843600749969482 -0.333257943391799927 0.0659528747200965881
-0.484908461570739746 -2.12412190437316895 0.673033654689788818
1.23995423316955566 0.558480918407440186 -0.600161373615264893
2.19649386405944824 -0.871471285820007324 0.279167234897613525
-1.14371705055236816 -0.237574607133865356 -0.224076732993125916
0.204956799745559692 0.00419113785028457642 -0.327952027320861816
-1.15110492706298828 -0.233699291944503784 -0.27740439772605896
0.901918530464172363 -0.0446991920471191406 0.493589162826538086
0.0749911293387413025 1.42208170890808105 -0.0586337894201278687
-0.512287676334381104 0.000390782952308654785 0.141683891415596008
0.411668002605438232 -0.145178437232971191 -1.87045788764953613
-0.477765977382659912 -0.914553463459014893 0.7352294921875
0.146997779607772827 -1.16928970813751221 -1.95369315147399902
-0.0102189034223556519 -1.23782229423522949 0.322773396968841553
0.580321252346038818 -0.63116753101348877 -1.4850921630859375
-0.863317966461181641 0.54725956916809082 0.0907201245427131653
0.562418103218078613 -0.430394262075424194 -0.494620740413665771
-0.797156989574432373 0.273020446300506592 1.20137608051300049
0.190961658954620361 -0.20537993311882019 -1.0507667064666748
1.1688305139541626 -0.135987460613250732 1.49616312980651855
0.830109238624572754 0.507166743278503418 -0.401274532079696655
0.699598133563995361 -0.0827398300170898438 0.858950316905975342
1.65938234329223633 0.997994065284729004 -0.228561937808990479
0.62554621696472168 -0.297469049692153931 -0.391174376010894775
1.06874430179595947 -0.164221510291099548 0.739697754383087158
-0.697194039821624756 0.865117490291595459 -0.0689219161868095398
0.703398287296295166 -0.186280518770217896 -0.154528334736824036
-0.572275757789611816 0.603892624378204346 1.02117753028869629
0.127047985792160034 0.429729461669921875 0.532762646675109863
-0.114656157791614532 1.03278434276580811 0.0177989453077316284
0.538943767547607422 -0.324642270803451538 -0.537502765655517578
-1.48461043834686279 1.42631590366363525 0.287769049406051636
-0.105087295174598694 1.25245177745819092 -1.17744815349578857
-0.530821621417999268 -0.645545899868011475 2.08865118026733398
0.277838528156280518 -1.07039272785186768 1.80337846279144287
-0.13814350962638855 -0.0407060161232948303 0.826642870903015137
-0.416060477495193481 0.0806076899170875549 0.00418161600828170776
-0.722207546234130859 1.19384312629699707 -0.732392370700836182
-1.82509636878967285 0.907849609851837158 -0.822447001934051514
-0.762859106063842773 0.96996760368347168 -0.240341454744338989
-0.119195722043514252 0.402663707733154297 0.763273894786834717
0.109111063182353973 0.518073499202728271 -0.00564247369766235352
1.22551298141479492 -0.223557069897651672 0.212354749441146851
-0.0145335942506790161 0.858303368091583252 0.496839582920074463
0.280777335166931152 0.483684688806533813 0.239704430103302002
-0.475190609693527222 -1.19711315631866455 1.18441462516784668
-0.214594796299934387 -0.449894219636917114 1.80670785903930664
0.52800518274307251 0.841628730297088623 0.239991381764411926
0.0774338915944099426 1.25387477874755859 -0.195056632161140442
0.617930412292480469 -1.67456948757171631 0.287886589765548706
-0.220553964376449585 -0.753587424755096436 -0.671327054500579834
0.671678245067596436 -0.244604259729385376 -0.0240595042705535889
-0.758865237236022949 -0.353770256042480469 1.07342386245727539
-0.331001162528991699 -0.0953671857714653015 0.618397712707519531
-0.156169325113296509 1.19613182544708252 -1.35660195350646973
-0.545697152614593506 -1.84726488590240479 -0.293691247701644897
-0.334185808897018433 -0.264022350311279297 -1.16594648361206055
-0.124514110386371613 0.299634695053100586 -0.355027556419372559
-0.150261819362640381 0.208908140659332275 0.575160622596740723
-2.3863823413848877 0.332347631454467773 1.33252668380737305
0.17999577522277832 -2.19663882255554199 -0.216176688671112061
0.334808290004730225 1.33493947982788086 -0.80540543794631958
-0.750915586948394775 0.121111974120140076 -0.497613906860351562
-0.995820403099060059 1.04150259494781494 -0.156811073422431946
-0.643871009349822998 1.06449949741363525 0.63124316930770874
2.19299459457397461 -0.164721950888633728 0.67144930362701416
-2.01867246627807617 0.485697627067565918 -0.44405674934387207
-0.548629045486450195 0.981732487678527832 0.456086277961730957
-0.258740067481994629 1.37454736232757568 -1.49711883068084717
-1.50586974620819092 0.148033499717712402 -1.85588252544403076
0.50537031888961792 -1.21319496631622314 -0.0404515080153942108
-1.1580275297164917 0.553955912590026855 0.280533730983734131
1.76822388172149658 -0.147104769945144653 -0.0767826065421104431
1.28356623649597168 1.36255049705505371 -0.349019706249237061
-0.412457764148712158 -0.789102017879486084 0.081854596734046936
-0.888480782508850098 1.87713134288787842 -0.370892137289047241
-2.11624526977539062 -0.163809940218925476 -1.62265801429748535
0.411651253700256348 0.416644573211669922 0.221519589424133301
-1.22848272323608398 0.0734352394938468933 0.143598303198814392
1.07407283782958984 -0.166208267211914062 0.684844970703125
-2.26639604568481445 0.52753680944442749 -0.606644153594970703
0.0533391125500202179 -0.19989815354347229 -0.763150691986083984
0.325798928737640381 -0.0266587361693382263 -0.374902874231338501
-0.160887226462364197 0.434673309326171875 1.08352816104888916
-0.634432435035705566 -1.31892311573028564 -0.676350295543670654
-0.122940301895141602 0.552690446376800537 -0.189391732215881348
0.202838659286499023 -1.50422430038452148 -0.93782728910446167
-1.17544460296630859 2.76495718955993652 0.0642597973346710205
-0.793161511421203613 -0.527399659156799316 1.32839703559875488
-1.91214406490325928 0.371716111898422241 -0.203023925423622131
-0.233841925859451294 -0.277031391859054565 -0.257937222719192505
1.53740310668945312 -0.818856716156005859 0.483044981956481934
1.78098833560943604 1.20090234279632568 -0.692003071308135986
0.317743450403213501 -0.369439512491226196 -0.607867002487182617
-1.24534904956817627 0.542467713356018066 -0.312836617231369019
-0.995622754096984863 -0.112058579921722412 -0.84670555591583252
-0.489980101585388184 1.36902284622192383 0.48663175106048584
-0.105071127414703369 1.04641234874725342 1.12460494041442871
1.68668198585510254 -0.13101707398891449 -0.118789240717887878
0.28065529465675354 -1.16673314571380615 -0.628864765167236328
-0.136809170246124268 -0.977184772491455078 0.114022254943847656
0.131885439157485962 0.624819517135620117 -0.31646960973739624
0.130036622285842896 2.38531732559204102 -0.0861284807324409485
0.570461809635162354 -0.0244564935564994812 -0.829589545726776123
0.703001677989959717 -0.171253755688667297 -0.708560287952423096
-0.91239553689956665 0.439698994159698486 1.54796934127807617
0.15768161416053772 -1.65485012531280518 0.36980438232421875
0.498095989227294922 0.35933414101600647 -0.0888481363654136658
-1.26700115203857422 2.25061988830566406 0.932984888553619385
0.520464122295379639 -0.121072009205818176 0.516552448272705078
-0.407647848129272461 1.24005293846130371 0.14260457456111908
-0.631206631660461426 0.20021393895149231 -1.94235801696777344
1.00965332984924316 -0.831440567970275879 2.02622842788696289
-0.866560459136962891 0.396675169467926025 -0.0565512478351593018
0.0757569596171379089 1.49362695217132568 -0.346921592950820923
-1.20112442970275879 1.74055969715118408 1.01430106163024902
1.38502705097198486 -0.726784884929656982 -0.436509579420089722
0.584366500377655029 -0.197318971157073975 0.903203308582305908
0.653849959373474121 -1.7995753288269043 -0.831468164920806885
0.0870692729949951172 -0.528162121772766113 0.730333149433135986
0.450117051601409912 0.0650518685579299927 1.36534535884857178
1.38661384582519531 -0.289673745632171631 -0.371323823928833008
0.632236778736114502 0.00954877585172653198 -0.929535329341888428
-1.04906165599822998 -0.230513036251068115 -0.470311522483825684
0.13092648983001709 -1.41505575180053711 0.574536740779876709
-0.180164247751235962 -0.462672531604766846 -2.15277552604675293
0.150060176849365234 0.37777411937713623 -0.14929276704788208
-0.444610118865966797 1.3763425350189209 -0.548416078090667725
1.92701685428619385 0.014966227114200592 -0.14426836371421814
-1.04315078258514404 -0.923463284969329834 -0.970539510250091553
1.01808154582977295 0.413063734769821167 0.57716071605682373
0.30196070671081543 1.741829514503479 -0.0131128206849098206
-0.122370809316635132 -0.183402940630912781 -0.177514940500259399
1.53736186027526855 -0.444563597440719604 -0.461726456880569458
0.0819052159786224365 -0.269603729248046875 -0.218495503067970276
0.0095793604850769043 -0.00933277606964111328 -0.571232140064239502
1.82318961620330811 -1.81963956356048584 0.262080281972885132
0.0463850125670433044 -1.50308549404144287 -0.28929448127746582
0.845346808433532715 -0.386750757694244385 1.17508220672607422
-0.300586462020874023 -1.53119933605194092 0.304485410451889038
0.704989492893218994 2.31587052345275879 -0.641370832920074463
0.016031019389629364 -0.203283548355102539 -1.35256564617156982
0.549902915954589844 0.703307628631591797 0.00121383368968963623
-0.665970981121063232 -1.24575257301330566 -0.0877442359924316406
0.436083078384399414 -1.14158368110656738 1.15227615833282471
-1.02651691436767578 -1.08364391326904297 0.104011647403240204
-0.0847449600696563721 0.560815036296844482 -1.75870561599731445
-1.31428158283233643 -0.0217878744006156921 0.411563277244567871
0.113975562155246735 1.2588493824005127 1.14371180534362793
0.544424057006835938 -0.699309945106506348 0.720175504684448242
0.264664798974990845 0.421383261680603027 1.22924160957336426
0.74767756462097168 -1.08766674995422363 0.269242912530899048
-0.865226626396179199 0.293509900569915771 -1.91580820083618164
-0.157595351338386536 -1.25626862049102783 0.0715152397751808167
-0.221649289131164551 0.282764703035354614 -0.212656289339065552
-0.329806238412857056 0.289797067642211914 0.105705983936786652
1.08542931079864502 0.673408150672912598 -0.224879652261734009
0.152244687080383301 1.07239317893981934 0.510731875896453857
-0.794875502586364746 0.546862185001373291 -1.63203012943267822
-0.159531667828559875 -0.86504054069519043 2.03024768829345703
0.0169648230075836182 2.94852042198181152 -0.42141491174697876
-1.43369925022125244 -0.176876932382583618 0.706608831882476807
0.0947912707924842834 -0.750659048557281494 0.778162837028503418
0.765132129192352295 0.936021089553833008 1.14006698131561279
-0.750798523426055908 1.67221105098724365 -0.268194735050201416
1.13708674907684326 0.680686652660369873 0.411278307437896729
0.639702260494232178 -1.30950450897216797 0.373495608568191528
2.33639788627624512 1.43661677837371826 1.22835040092468262
0.121971949934959412 -0.930801630020141602 -0.671835184097290039
0.477247655391693115 0.961170017719268799 -0.112607434391975403
-0.396695166826248169 -1.12197673320770264 0.187806695699691772
-0.123383477330207825 -1.54070746898651123 -0.387262135744094849
0.369686365127563477 0.554750442504882812 -0.610103011131286621
0.426037877798080444 -0.540711879730224609 0.330307185649871826
0.268626481294631958 0.733148574829101562 -0.030617833137512207
-0.246372327208518982 -0.52146458625793457 0.646134912967681885
-1.03876304626464844 -0.569557607173919678 -0.180174350738525391
-1.45617330074310303 1.1657257080078125 0.750584006309509277
0.0249659940600395203 -1.19268620014190674 -0.253780901432037354
-2.55766177177429199 -0.137003779411315918 0.129223749041557312
1.61895418167114258 0.182703524827957153 0.88789975643157959
0.726695477962493896 0.296693593263626099 -0.545373678207397461
1.49374675750732422 0.855960190296173096 -1.31999289989471436
-0.29900088906288147 -0.398741304874420166 1.36260056495666504
-0.751548230648040771 -0.127465426921844482 -0.685969889163970947
-0.577534258365631104 0.0596084222197532654 2.08784294128417969
-0.604787647724151611 0.87314218282699585 -0.644525706768035889
-0.213972732424736023 -0.946820199489593506 -0.623207032680511475
-0.244843155145645142 -0.0426095277070999146 -0.380766034126281738
-0.264314204454421997 -0.397994518280029297 0.43544730544090271
2.68529939651489258 0.195504814386367798 0.747870743274688721
-0.130496770143508911 0.692831754684448242 -0.0545152276754379272
-2.3771061897277832 0.489755094051361084 -0.372975945472717285
0.907199978828430176 -0.556553423404693604 2.86334776878356934
-0.578458845615386963 -0.116492971777915955 -1.31949055194854736
-0.216431230306625366 -0.123673915863037109 -1.22311234474182129
-0.647005438804626465 0.0364926159381866455 -0.854730844497680664
0.127671137452125549 0.932752370834350586 -0.0590570308268070221
-0.280551493167877197 0.292947888374328613 0.229691579937934875
0.319339454174041748 -0.0807662457227706909 -0.241533666849136353
-0.957126498222351074 1.56366395950317383 0.409804821014404297
-0.0810743942856788635 0.245118096470832825 0.833570957183837891
-2.66055870056152344 -0.704409658908843994 0.823016762733459473
0.368627190589904785 0.876501798629760742 1.17127954959869385
1.65946400165557861 -0.856321215629577637 0.058507874608039856
-0.897059261798858643 2.95546913146972656 -1.17151284217834473
0.965676069259643555 0.620621383190155029 -0.188901394605636597
1.90097784996032715 0.569044649600982666 0.479319840669631958
1.59868991374969482 -0.716706931591033936 0.343835234642028809
-0.177278846502304077 1.22511816024780273 -0.505883216857910156
0.971298873424530029 0.825602889060974121 1.23892843723297119
-0.654734432697296143 -1.02578473091125488 0.77409827709197998
1.14212870597839355 -0.231499001383781433 0.337196230888366699
-0.238331407308578491 0.415613442659378052 1.48361515998840332
0.556862950325012207 -0.25406530499458313 -0.487659692764282227
-0.661630034446716309 1.66014432907104492 -0.533013522624969482
1.37492263317108154 -0.0171039104461669922 -0.103383965790271759
0.212544560432434082 0.470642507076263428 -0.091302238404750824
-0.81738436222076416 -0.0144051834940910339 -0.22408042848110199
1.59832894802093506 0.707135677337646484 0.936592698097229004
2.09532523155212402 0.45638081431388855 0.460012555122375488
-1.88063919544219971 -0.287966877222061157 0.0973299741744995117
0.55108267068862915 -0.88053208589553833 0.600817859172821045
-2.19130182266235352 1.02921426296234131 0.77299875020980835
0.177248731255531311 1.79531347751617432 -0.589114129543304443
1.40596437454223633 -1.48682570457458496 -0.349718391895294189
-1.15325498580932617 -1.24891078472137451 -1.78663945198059082
1.59758412837982178 -1.98353135585784912 -0.101768292486667633
-0.279658406972885132 0.860102176666259766 -0.254979461431503296
-0.627102136611938477 -0.0402048267424106598 0.62025153636932373
-1.54024589061737061 0.705268442630767822 0.0241031721234321594
-0.0121958926320075989 0.539228737354278564 -1.41080200672149658
1.22870898246765137 0.984189748764038086 -1.48961281776428223
-0.281527966260910034 0.983544826507568359 -0.336191803216934204
0.330297142267227173 -0.172315135598182678 -0.362326204776763916
-0.887102067470550537 -0.413853675127029419 0.250256061553955078
-1.40178012847900391 0.583235800266265869 0.948550403118133545
-1.5729374885559082 0.179876267910003662 -0.818832039833068848
1.38199830055236816 0.147836297750473022 -1.20311534404754639
-0.00157561153173446655 -0.725673854351043701 -0.3684958815574646
2.66892409324645996 -1.39920532703399658 0.18041500449180603
-0.260778754949569702 1.43816876411437988 1.43262803554534912
0.927821874618530273 0.964845180511474609 -1.40215802192687988
1.18554580211639404 0.269434750080108643 0.218132644891738892
1.91714084148406982 -0.0852088257670402527 0.668810606002807617
-0.0323210209608078003 -0.721551597118377686 -0.386360794305801392
0.0330850407481193542 -0.496136695146560669 -0.996632158756256104
1.60953938961029053 0.13542550802230835 1.09354627132415771
-0.763700366020202637 -0.700019717216491699 0.286534547805786133
0.215310588479042053 0.402069032192230225 1.25490033626556396
-0.149358198046684265 2.17565274238586426 2.37375926971435547
-0.993406355381011963 0.244432032108306885 -0.345376849174499512
0.631527125835418701 0.926740109920501709 -0.106808103621006012
-0.465830087661743164 1.23079836368560791 0.605426788330078125
0.375715672969818115 0.0443560406565666199 0.377500981092453003
-0.863264024257659912 0.495611727237701416 0.29566916823387146
0.964028239250183105 -0.128747731447219849 -2.02727150917053223
-0.606038689613342285 -1.56049966812133789 0.294885516166687012
0.398244142532348633 0.292501360177993774 -0.152290999889373779
2.20072126388549805 -0.612432122230529785 0.530165553092956543
0.437912732362747192 -1.39761877059936523 2.3449702262878418
-1.00570690631866455 1.10445141792297363 1.41616415977478027
-0.77648627758026123 -0.784607231616973877 -0.660068511962890625
-0.94143974781036377 0.286915957927703857 -1.34914839267730713
-0.0585110969841480255 0.157321497797966003 0.203535109758377075
1.54148507118225098 -2.21772193908691406 0.205318450927734375
0.623003780841827393 0.278845816850662231 -0.257533788681030273
0.194081917405128479 -0.970819711685180664 -0.337515503168106079
0.0967437252402305603 -0.602620601654052734 1.39099502563476562
-0.0841730237007141113 0.0531113073229789734 -0.0147155001759529114
-0.719439864158630371 -0.469341129064559937 -0.484314978122711182
0.620652556419372559 1.70124626159667969 1.38079345226287842
-0.341103971004486084 -0.147914305329322815 -1.40151882171630859
-0.382810413837432861 -1.2106252908706665 0.0408317074179649353
-0.849879264831542969 -0.819164514541625977 0.706231892108917236
0.362800359725952148 1.87024402618408203 -0.044123530387878418
-0.0412943139672279358 -0.2925301194190979 -0.945652484893798828
-0.257598072290420532 0.8445892333984375 -0.722965896129608154
-0.244454711675643921 0.926260471343994141 -0.165450543165206909
-0.175853639841079712 0.407697439193725586 0.393556833267211914
0.730890631675720215 -0.679002881050109863 -0.0616252310574054718
-0.918601155281066895 -0.943557322025299072 0.851912200450897217
-1.24473679065704346 -0.033980734646320343 -1.06641864776611328
0.703960776329040527 -0.450259029865264893 0.461442112922668457
-2.28233575820922852 0.547131836414337158 1.11690986156463623
0.721896111965179443 -1.06443405151367188 0.763704121112823486
-0.911719977855682373 -0.512517154216766357 0.970053315162658691
-0.193710044026374817 2.81172013282775879 0.0653291940689086914
0.810251116752624512 0.0437723994255065918 -0.468167424201965332
0.530175566673278809 -0.0302053913474082947 -0.32997971773147583
-0.0992927774786949158 -0.14334598183631897 -0.394437402486801147
1.1417851448059082 -0.321216762065887451 0.547528982162475586
-1.28152763843536377 0.025461733341217041 -1.08111155033111572
0.472694277763366699 2.90515780448913574 0.0468611791729927063
0.269565999507904053 1.47318267822265625 -1.18733203411102295
-0.197696864604949951 -0.509935319423675537 -0.0742096006870269775
-1.06585061550140381 0.873268485069274902 -0.829115211963653564
0.398152709007263184 1.56505036354064941 0.00749696791172027588
0.255681931972503662 0.595421493053436279 0.747976481914520264
-0.154788672924041748 0.373237252235412598 1.10914206504821777
1.17504143714904785 0.486344665288925171 -0.239331290125846863
-0.399355530738830566 0.855037927627563477 0.518249988555908203
0.00898299366235733032 0.531340122222900391 -2.76282835006713867
-0.301749259233474731 -1.30375933647155762 1.23406386375427246
1.37291145324707031 -0.937580883502960205 -0.304410874843597412
0.717001438140869141 0.537653803825378418 -1.07641315460205078
-0.359059810638427734 -0.131505012512207031 -0.937309741973876953
-0.371573388576507568 0.865532040596008301 0.0132879763841629028
-1.03734052181243896 -0.0288100019097328186 1.49302291870117188
-1.77984809875488281 -0.0270180478692054749 -0.277392715215682983
0.297294199466705322 0.85914236307144165 -0.0917009338736534119
-0.21548934280872345 0.561366736888885498 -0.851788699626922607
1.52362358570098877 1.00356066226959229 -1.21137619018554688
-1.05099451541900635 -0.183875381946563721 -1.00110673904418945
0.0305064693093299866 0.226703941822052002 0.928446054458618164
-0.633892297744750977 0.416573405265808105 -0.0787018686532974243
0.823576688766479492 0.151574552059173584 -0.377966016530990601
-0.44712260365486145 -1.6263192892074585 -0.847451567649841309
-0.197484672069549561 0.729495704174041748 -0.721074342727661133
0.1103997603058815 -1.17642295360565186 -0.7514914870262146
-0.742941021919250488 2.21336817741394043 -0.150890693068504333
-0.266665399074554443 0.165596634149551392 -0.198378890752792358
0.128682732582092285 0.797318696975708008 1.48900067806243896
1.77733361721038818 0.371216148138046265 -0.366596102714538574
-1.49126791954040527 0.407144993543624878 0.363628894090652466
-0.321333616971969604 2.12349772453308105 -1.68591952323913574
-1.35767662525177002 0.137081682682037354 0.159586966037750244
0.577305138111114502 -1.81059825420379639 0.646906375885009766
-0.0350430533289909363 0.142259508371353149 -0.0170624479651451111
0.578290164470672607 -0.751524209976196289 -1.35119807720184326
-0.873899519443511963 0.302178025245666504 0.320140302181243896
-0.935588538646697998 1.21602022647857666 1.20009803771972656
0.420667052268981934 -1.40838432312011719 -2.40812134742736816
-1.57984793186187744 1.06203067302703857 -0.470017194747924805
1.45628690719604492 -2.11288332939147949 -1.49718475341796875
0.329884916543960571 0.389949798583984375 -0.0266445949673652649
1.83137953281402588 1.39895498752593994 -1.306846022605896
