ply
format ascii 1.0
element vertex 753
comment vertices
property float x
property float y
property float z
end_header
-0.41610872745513916 -1.16207206249237061 -1.65323925018310547
0.899331092834472656 0.217995613813400269 0.645288765430450439
-0.229139983654022217 0.775894522666931152 1.13671791553497314
0.674240350723266602 0.348077178001403809 1.41983187198638916
0.314377307891845703 0.713064849376678467 -0.9064064621925354
-0.217099547386169434 0.820240676403045654 -0.927002489566802979
0.0984627231955528259 0.0281521156430244446 0.869458198547363281
1.60206091403961182 -1.29347145557403564 0.399101972579956055
-0.452730029821395874 -0.0848150104284286499 1.38358068466186523
0.39593052864074707 0.674390494823455811 0.832519114017486572
0.862092137336730957 0.283514559268951416 -1.47745788097381592
0.577251791954040527 -0.613411486148834229 -0.102643512189388275
0.883988797664642334 0.153993532061576843 0.62314605712890625
-1.22504901885986328 -0.986670374870300293 1.02779197692871094
1.23258137702941895 -1.7705920934677124 -0.877693295478820801
-0.158859729766845703 1.02134406566619873 -0.199469149112701416
-0.852145671844482422 -0.840766608715057373 -0.0591201409697532654
-0.447858840227127075 -0.10422041267156601 0.424709230661392212
0.902521312236785889 0.261524677276611328 -0.408011972904205322
-0.685288369655609131 -0.374949276447296143 0.421396464109420776
0.533365786075592041 -0.728379189968109131 -0.731156349182128906
-0.46232980489730835 -0.159893035888671875 1.09652125835418701
0.59012901782989502 1.43550968170166016 -0.119836106896400452
-0.617038428783416748 0.848062217235565186 1.07434988021850586
-0.628256380558013916 -2.01392745971679688 -0.756267547607421875
-1.39754569530487061 -1.39061951637268066 -0.907655119895935059
0.721299588680267334 -0.2477998286485672 -1.01414656639099121
1.47036528587341309 1.45213472843170166 -0.128555536270141602
-0.0165983587503433228 1.44235920906066895 0.73443073034286499
0.776192843914031982 0.132347136735916138 1.38454663753509521
0.170931160449981689 -1.67665970325469971 1.12943565845489502
-0.355383455753326416 0.386487811803817749 -0.42770811915397644
2.6320042610168457 0.125185519456863403 -0.246524155139923096
-0.954430103302001953 -0.537439823150634766 0.350621134042739868
0.500505983829498291 0.0896646827459335327 0.0176169201731681824
0.329237878322601318 -1.3862764835357666 -1.38456821441650391
-1.01497781276702881 -0.5035591721534729 -0.219806700944900513
-0.826029062271118164 1.56580448150634766 -0.287713140249252319
-0.474107474088668823 -0.143904924392700195 -0.163945138454437256
0.291101455688476562 1.46110415458679199 -1.6005406379699707
-0.861628592014312744 -0.412789463996887207 0.43904423713684082
1.17515337467193604 1.14887487888336182 2.05481553077697754
0.528617680072784424 -0.233862742781639099 -0.736467242240905762
-0.445318281650543213 0.924235820770263672 0.259718358516693115
1.4463273286819458 -0.937345981597900391 0.37196272611618042
0.537651777267456055 0.48943096399307251 -0.394234389066696167
-0.0510898828506469727 -0.134930893778800964 -0.793893575668334961
-0.79153209924697876 0.322091221809387207 -0.693830251693725586
-1.04878604412078857 -2.30962371826171875 -0.904032468795776367
-0.704703390598297119 0.592159271240234375 0.118272915482521057
-0.218701690435409546 -0.386781901121139526 1.40581929683685303
0.761784911155700684 1.09445655345916748 0.889387071132659912
0.467812031507492065 -0.145792216062545776 -0.0783338546752929688
-1.06670689582824707 1.26952242851257324 0.110814675688743591
-0.900135993957519531 0.411502867937088013 0.891950249671936035
0.570345938205718994 0.360793709754943848 -1.01635754108428955
0.382822364568710327 1.2297356128692627 0.129006952047348022
-0.979597806930541992 -0.338572502136230469 0.399481803178787231
1.02556359767913818 -1.45686447620391846 -0.525154650211334229
-1.43520033359527588 0.190020427107810974 -0.487327337265014648
-0.256884396076202393 0.280468374490737915 -1.1889718770980835
-1.16795110702514648 -0.287538290023803711 0.101169191300868988
1.85357868671417236 -0.382731437683105469 -0.0737231448292732239
0.954404532909393311 0.873866617679595947 -0.481962025165557861
0.346812576055526733 -0.573910355567932129 0.28754153847694397
-0.224844872951507568 -0.528547525405883789 0.0733856260776519775
-0.170733988285064697 -1.21029555797576904 -1.19197642803192139
1.30400598049163818 -0.255538821220397949 0.222297251224517822
-1.07563555240631104 -0.196126639842987061 1.33279728889465332
0.448129653930664062 -0.366968214511871338 0.366276264190673828
0.696268618106842041 -0.116174332797527313 0.0310666412115097046
-0.107778832316398621 -0.988040387630462646 0.268753588199615479
0.859053671360015869 -0.767212510108947754 0.226632833480834961
0.149296209216117859 -0.1892128586769104 2.31946921348571777
0.447529733180999756 0.334859341382980347 -2.0531470775604248
0.860635042190551758 0.0388868637382984161 -0.212966442108154297
-0.132931992411613464 -1.11058509349822998 0.519688248634338379
0.180799201130867004 0.970705151557922363 0.407531023025512695
0.461211085319519043 0.150942444801330566 0.318185031414031982
0.19098016619682312 0.368527472019195557 -0.59135890007019043
0.842091798782348633 1.26954817771911621 0.90548175573348999
0.517440676689147949 0.31108778715133667 -1.35235559940338135
-0.256285816431045532 -0.123790085315704346 0.324935078620910645
-0.811679303646087646 -1.11869239807128906 0.71382296085357666
0.841565251350402832 0.563908636569976807 -0.96468740701675415
0.174930810928344727 0.394437909126281738 0.234880685806274414
-2.11881351470947266 -0.468549907207489014 -0.334139257669448853
-0.617686748504638672 -0.28283238410949707 -0.812849104404449463
0.76546090841293335 -0.403917133808135986 1.13609087467193604
1.79832339286804199 -0.260693550109863281 0.241563215851783752
0.135709017515182495 0.484517931938171387 2.49793434143066406
0.390943855047225952 0.270735561847686768 0.295402109622955322
-0.560785055160522461 1.12359929084777832 -0.245681703090667725
-0.720479846000671387 -0.776697814464569092 0.456327736377716064
0.49988323450088501 -0.80877310037612915 0.251157224178314209
-1.05115818977355957 0.451521188020706177 0.259341001510620117
-1.22205793857574463 -0.983774423599243164 -0.889719545841217041
0.688686072826385498 -0.985315263271331787 0.893866598606109619
0.314899653196334839 1.00563347339630127 0.0437749512493610382
0.615342378616333008 -0.921460866928100586 -0.528376758098602295
-0.383718669414520264 0.271862447261810303 -1.42405927181243896
-0.5107574462890625 -0.263118535280227661 2.2178645133972168
0.363109111785888672 0.0165405422449111938 -0.364041954278945923
0.54929506778717041 0.39611053466796875 -1.31821715831756592
0.152674168348312378 -0.460139930248260498 -1.67415010929107666
-1.3345264196395874 1.21864104270935059 0.477869689464569092
-2.03901052474975586 -0.174524649977684021 -1.53826749324798584
-0.915550112724304199 1.02104341983795166 -0.501679301261901855
0.511444926261901855 1.63302147388458252 0.254731953144073486
0.300089478492736816 2.11256527900695801 1.16179239749908447
-1.79562413692474365 -0.217798560857772827 0.337441235780715942
0.193737044930458069 0.164824038743972778 -0.648327291011810303
0.307589292526245117 0.170349031686782837 -0.892957508563995361
0.455327272415161133 -0.195523858070373535 0.522527098655700684
2.37432551383972168 1.84890556335449219 -0.428373724222183228
0.674584925174713135 0.00706192851066589355 0.698127269744873047
0.677071332931518555 0.13387104868888855 0.239146649837493896
-0.469341129064559937 0.243713319301605225 -1.31805098056793213
0.693500399589538574 0.0683306902647018433 0.980362057685852051
-1.96692359447479248 1.24059581756591797 0.241659671068191528
-0.409252673387527466 -0.198860138654708862 1.05474758148193359
0.133375734090805054 1.22906601428985596 0.689899146556854248
0.553910493850708008 0.756509661674499512 -0.404008656740188599
-0.833314061164855957 -0.310383468866348267 -1.33615696430206299
1.1473081111907959 0.910376965999603271 -0.247906655073165894
1.14905786514282227 0.347218722105026245 0.556338667869567871
1.30253255367279053 0.420452207326889038 0.456983000040054321
2.28534674644470215 -1.4449164867401123 0.0889872238039970398
-0.138436675071716309 1.18154716491699219 -0.730678081512451172
-0.604410171508789062 1.30953776836395264 -0.61546790599822998
-2.54064774513244629 -0.431438148021697998 0.984443545341491699
0.450690656900405884 -0.632553577423095703 0.134885072708129883
0.154213413596153259 0.377330422401428223 1.81763410568237305
1.86923789978027344 1.83897292613983154 0.0518055185675621033
1.62880063056945801 0.360272407531738281 -0.270880222320556641
1.16971874237060547 -0.983360052108764648 -0.594561636447906494
-0.272054433822631836 1.56327724456787109 -1.58321785926818848
-0.353856801986694336 -1.16849565505981445 -0.744571924209594727
-0.447300434112548828 0.470897406339645386 0.457036375999450684
-0.341457247734069824 -0.123338788747787476 -0.352448999881744385
-1.24919986724853516 -1.3853837251663208 -0.713899970054626465
0.00806015729904174805 -0.479650318622589111 -0.358313530683517456
0.394521653652191162 0.940830528736114502 0.424032598733901978
-1.29585945606231689 -0.378725320100784302 -1.37575185298919678
1.10626137256622314 0.442970097064971924 0.101087808609008789
-0.286075323820114136 -0.615315675735473633 -1.06639945507049561
0.0764035061001777649 0.0602619275450706482 -0.182552367448806763
-0.433652788400650024 -0.0712078139185905457 0.273862868547439575
-0.531756103038787842 -0.360290437936782837 -0.312209546566009521
1.09406423568725586 0.420379638671875 0.252866178750991821
0.00585939735174179077 -0.76069951057434082 0.27987942099571228
-0.447033405303955078 -0.718803644180297852 -1.31395256519317627
0.512825131416320801 1.35215950012207031 0.427726298570632935
2.72463393211364746 -0.528712868690490723 -0.750192403793334961
1.28288757801055908 0.531450629234313965 0.682267189025878906
2.03463268280029297 -1.08756160736083984 -1.35587310791015625
0.218166917562484741 1.75348043441772461 0.341515332460403442
0.38918304443359375 -0.141872897744178772 0.484874695539474487
0.481341063976287842 -0.571749389171600342 0.341434180736541748
-1.07723534107208252 -0.383160114288330078 -0.150914013385772705
1.45382404327392578 0.328844428062438965 -0.526721358299255371
1.03538858890533447 1.13277435302734375 1.1712651252746582
-0.650478661060333252 -0.22289566695690155 -2.06141257286071777
-0.0394966825842857361 0.822753190994262695 1.28227317333221436
-0.277684628963470459 0.0786035433411598206 0.779417991638183594
0.519132494926452637 -1.21495425701141357 2.17655062675476074
0.576965510845184326 -0.374070435762405396 -0.202667400240898132
0.545353055000305176 -0.608296990394592285 -0.727507293224334717
-0.997781336307525635 2.5609431266784668 0.985913991928100586
0.520353794097900391 1.26674199104309082 1.07484400272369385
1.5335012674331665 -2.93212103843688965 -1.45641195774078369
-0.324228495359420776 1.81023180484771729 -0.881004810333251953
1.2578127384185791 0.670499682426452637 -2.00057482719421387
0.188553541898727417 -0.206697344779968262 1.22775363922119141
0.0615088380873203278 1.18210506439208984 0.773510515689849854
-0.0657189264893531799 0.140992835164070129 1.82265996932983398
-0.245863348245620728 0.680233359336853027 0.211182072758674622
0.528840363025665283 1.36353254318237305 -1.60698044300079346
0.981473088264465332 -0.446380913257598877 0.746684074401855469
-1.19035732746124268 0.385490775108337402 -0.184651792049407959
-0.906509101390838623 -2.84441065788269043 1.31166589260101318
0.785376131534576416 -0.0272549688816070557 2.04774761199951172
-0.44787299633026123 0.55293804407119751 -1.00609421730041504
-0.010462343692779541 -0.539057075977325439 -0.657058775424957275
1.21692502498626709 0.18554338812828064 -1.07537710666656494
-0.553475081920623779 -0.942210495471954346 -0.181068465113639832
-0.881056070327758789 1.08935308456420898 0.253304094076156616
-1.01783812046051025 -0.58941185474395752 0.391853809356689453
0.992392301559448242 -1.06972062587738037 -0.445342421531677246
1.31038594245910645 0.571230530738830566 0.151814967393875122
0.331516832113265991 0.345159530639648438 -1.17561113834381104
-0.843475639820098877 0.263269543647766113 -1.88005948066711426
-0.73362576961517334 0.21479371190071106 -0.493351101875305176
0.407897591590881348 1.24298501014709473 0.306082278490066528
-0.0101631581783294678 1.6752774715423584 0.139845997095108032
-0.0751456096768379211 -0.568569958209991455 0.120524406433105469
-0.353184223175048828 0.451295346021652222 0.837612450122833252
-0.0723344534635543823 0.475232213735580444 0.516479611396789551
0.157816290855407715 1.16464042663574219 1.84619343280792236
0.272273123264312744 1.08084166049957275 0.179034680128097534
0.679763913154602051 -0.891590654850006104 -1.8304436206817627
0.123492240905761719 1.55946087837219238 -0.588590860366821289
1.07118141651153564 -1.5431358814239502 -0.728225946426391602
-0.465890586376190186 0.350684791803359985 0.260989606380462646
-0.260335773229598999 0.240488022565841675 -1.42621040344238281
-1.17562186717987061 -0.182242244482040405 -2.29557633399963379
-1.35717117786407471 -0.0786720588803291321 -0.554514884948730469
0.630101501941680908 -0.669089078903198242 -0.61136782169342041
-0.289660453796386719 0.635538220405578613 1.07593846321105957
-0.199781164526939392 0.922868669033050537 -1.75805306434631348
0.319743037223815918 -0.657131850719451904 2.10807228088378906
0.291476130485534668 -0.00897032022476196289 -1.30009543895721436
1.21048033237457275 0.954920291900634766 -0.8846435546875
0.600946605205535889 0.47483941912651062 -0.39094012975692749
-0.79042506217956543 -0.50418388843536377 0.568244218826293945
0.00912324339151382446 0.469287961721420288 0.233452707529067993
0.109362877905368805 -0.0275496244430541992 0.212954699993133545
0.332956075668334961 1.22164022922515869 0.845893800258636475
0.965172350406646729 -1.38995635509490967 0.379808992147445679
-0.980632781982421875 -0.344466954469680786 0.639018595218658447
1.63989877700805664 0.186111390590667725 1.41090643405914307
0.45682525634765625 0.0846487283706665039 0.263266563415527344
-1.32685959339141846 1.33184778690338135 2.53393244743347168
-0.00877050310373306274 -1.0314481258392334 -0.733400285243988037
1.96959877014160156 0.350805222988128662 1.20031213760375977
1.41733336448669434 -1.37800443172454834 -1.60601794719696045
-1.31845998764038086 -0.285544455051422119 -0.157353296875953674
-0.00477346032857894897 0.610646367073059082 0.151929169893264771
1.55009496212005615 -0.57351374626159668 0.266698062419891357
-0.800258040428161621 0.424789011478424072 -0.608830392360687256
-0.757590830326080322 -0.808077096939086914 -1.60789215564727783
-0.675433218479156494 0.377636373043060303 0.118934020400047302
0.773228585720062256 0.430256783962249756 0.900409162044525146
3.44557285308837891 0.158395349979400635 0.812230944633483887
-1.4527360200881958 -0.0240991264581680298 0.534647047519683838
1.01716029644012451 -0.122669801115989685 -0.541549026966094971
0.623023509979248047 0.838191509246826172 0.217358231544494629
0.411146849393844604 -1.017386794090271 1.07045316696166992
0.611944377422332764 -0.947363436222076416 -0.0866660997271537781
-0.243296265602111816 0.038525015115737915 0.892181634902954102
0.560873091220855713 0.82587730884552002 1.47300624847412109
0.407441318035125732 0.8643798828125 -1.12775516510009766
1.40047013759613037 -0.559300601482391357 0.228638678789138794
0.96425020694732666 -0.604380249977111816 -0.57330697774887085
-0.284594625234603882 0.731612563133239746 0.150681167840957642
0.832275629043579102 0.203550472855567932 -0.431664913892745972
-0.286919206380844116 0.296870619058609009 -0.0983789041638374329
-0.129308253526687622 1.05425775051116943 -0.717396736145019531
-0.26774144172668457 -0.178086936473846436 -0.761035799980163574
0.982719898223876953 -0.214939236640930176 0.809145689010620117
-0.66263425350189209 0.456795334815979004 1.28246879577636719
1.44853687286376953 0.723159551620483398 -0.859749853610992432
0.190619051456451416 -1.10090577602386475 -0.268470138311386108
0.329523950815200806 -0.662703514099121094 0.433886200189590454
-0.198774054646492004 -0.63391578197479248 0.314239621162414551
0.454796552658081055 0.740058302879333496 -1.21828711032867432
-0.619652390480041504 0.103707954287528992 -0.66080552339553833
-0.0570209026336669922 0.0904138758778572083 0.238160640001296997
0.145110279321670532 -0.414436936378479004 -0.412610650062561035
0.0886591449379920959 0.89866483211517334 -0.232017010450363159
-0.109536267817020416 -2.12017226219177246 0.243266433477401733
-0.580229401588439941 0.671262383460998535 2.47834587097167969
-0.0697208046913146973 1.5122295618057251 0.151970401406288147
-0.215290606021881104 -0.0979532375931739807 0.803583741188049316
1.05767369270324707 0.524022817611694336 -0.675138115882873535
0.582062363624572754 -1.37813150882720947 -0.370183825492858887
-0.430031836032867432 0.0615043863654136658 -1.28343558311462402
-0.213005244731903076 -0.286341249942779541 0.0371402278542518616
0.995170652866363525 0.0759250223636627197 0.177379339933395386
-0.722187459468841553 0.1527557373046875 -0.52744746208190918
-1.21036839485168457 1.66480481624603271 0.388372063636779785
0.0638392418622970581 0.283857762813568115 0.801652431488037109
-0.14959263801574707 0.68110501766204834 -0.802794754505157471
-0.892218589782714844 -0.480306863784790039 0.628750383853912354
1.23047089576721191 -0.792340874671936035 1.98266780376434326
1.02575647830963135 0.155258849263191223 -0.56661522388458252
0.813096284866333008 -0.465848594903945923 -1.03125286102294922
-0.353664308786392212 1.51232874393463135 0.50503242015838623
0.0562476739287376404 -1.1658177375793457 -0.296290785074234009
-1.57490289211273193 0.277510672807693481 0.442421197891235352
0.569234728813171387 0.190839141607284546 -0.678952693939208984
-0.611443459987640381 -0.552963316440582275 -0.273991942405700684
0.155050367116928101 -0.079670540988445282 1.46454441547393799
0.501318693161010742 0.165108144283294678 0.27338719367980957
-0.599920570850372314 -0.0228217169642448425 0.357843607664108276
-0.366333693265914917 -0.0198984965682029724 0.347693800926208496
-0.836691796779632568 0.472962677478790283 0.804037213325500488
0.419520854949951172 -0.196889117360115051 0.849197864532470703
0.184648558497428894 0.984034299850463867 0.31297793984413147
0.524679422378540039 0.035974450409412384 0.364570319652557373
0.618279874324798584 0.407527387142181396 -1.33723211288452148
-0.507266819477081299 -2.06345391273498535 -0.723659753799438477
-0.230601638555526733 -0.501955389976501465 0.480370938777923584
-0.789510011672973633 -0.6409720778465271 -0.686929583549499512
0.868143737316131592 0.257046014070510864 -0.691716194152832031
0.0192784592509269714 -0.635417819023132324 0.316126734018325806
-1.31408751010894775 -0.332167327404022217 0.473694384098052979
-0.49505653977394104 -0.605881929397583008 0.122316718101501465
-0.286997169256210327 0.496664702892303467 0.290496408939361572
0.409118533134460449 -0.255681484937667847 -0.691563308238983154
-0.298228323459625244 -1.78608405590057373 -1.41099143028259277
-0.0321807116270065308 -1.70760762691497803 0.177853971719741821
0.541607499122619629 -1.51757633686065674 0.48290368914604187
-0.338413715362548828 1.7744290828704834 0.205363661050796509
0.901793122291564941 0.592749059200286865 0.240693330764770508
0.518759012222290039 0.511514186859130859 1.11204123497009277
0.608499884605407715 0.888495743274688721 -1.3626103401184082
0.341341853141784668 0.527286648750305176 0.99264836311340332
-1.22157132625579834 1.27768635749816895 0.160826683044433594
0.107828147709369659 -0.623681426048278809 0.0652803033590316772
0.0518436431884765625 -1.29758572578430176 0.431825697422027588
-0.461982369422912598 0.745833277702331543 0.0808399766683578491
1.59533917903900146 0.0169949382543563843 0.469667226076126099
-0.967517375946044922 0.594059944152832031 0.482053279876708984
-0.128433883190155029 -1.55860495567321777 -1.40051829814910889
-1.38686800003051758 0.0889277607202529907 2.02393054962158203
0.281399190425872803 0.0602463670074939728 -2.08147144317626953
0.163540393114089966 -1.95147466659545898 0.416663765907287598
-0.721011161804199219 -0.62388378381729126 1.45756566524505615
0.760748624801635742 2.35734391212463379 -1.09249734878540039
-0.463645756244659424 0.0618013292551040649 1.09439206123352051
-0.162946686148643494 0.106752857565879822 0.613102555274963379
0.0898840129375457764 0.42046704888343811 0.58540266752243042
-0.57352292537689209 0.51342320442199707 1.22144079208374023
1.0067516565322876 -1.52780699729919434 0.419679164886474609
-0.785456657409667969 -0.622841119766235352 -0.0227674096822738647
1.03862619400024414 0.808916270732879639 -0.226685881614685059
-0.284560680389404297 -0.681646466255187988 -0.956044495105743408
0.931191325187683105 2.18958568572998047 0.0595039650797843933
0.692231595516204834 -2.27454018592834473 -2.17047405242919922
-0.814863443374633789 0.925483465194702148 0.194332599639892578
-1.09644508361816406 0.458288699388504028 0.257172554731369019
0.281980961561203003 -1.54236078262329102 -0.459333062171936035
0.615174353122711182 -0.381468355655670166 -0.858857870101928711
-0.0244580507278442383 -0.360885947942733765 -0.844962358474731445
1.22000479698181152 -0.411611676216125488 1.65860617160797119
-0.448812931776046753 -0.410765290260314941 -0.353194534778594971
0.325410962104797363 -0.019641190767288208 0.434988796710968018
0.998070657253265381 1.93319606781005859 0.546658754348754883
-0.90100562572479248 -0.320655018091201782 -0.339522570371627808
-0.826743721961975098 1.22337257862091064 -2.38331127166748047
-0.582873642444610596 -0.778512775897979736 0.393095850944519043
-0.391989260911941528 -0.0108929798007011414 0.519701659679412842
-0.0623981952667236328 0.287385940551757812 -0.370260536670684814
1.37196469306945801 0.348749160766601562 1.90215539932250977
1.15053701400756836 -0.256553053855895996 -1.93284165859222412
-0.959150850772857666 -0.344102025032043457 0.367406606674194336
1.39892256259918213 0.246105313301086426 -1.0146629810333252
-1.01569092273712158 0.510801315307617188 0.827287614345550537
-0.148203343152999878 -0.0814599320292472839 -0.354850918054580688
0.0985478684306144714 0.69011920690536499 -0.303937166929244995
1.64566409587860107 0.432181894779205322 -1.91770088672637939
-0.647875964641571045 -0.741401433944702148 -0.572336971759796143
-0.383490920066833496 1.43527746200561523 0.677077353000640869
0.695832669734954834 -2.37362790107727051 -0.17158074676990509
-0.347804546356201172 0.00430479645729064941 0.676797032356262207
-1.37275969982147217 -0.18031899631023407 1.3779449462890625
-0.566701352596282959 0.892411470413208008 1.63158738613128662
0.241188898682594299 1.30695033073425293 0.509992301464080811
-1.59776735305786133 1.62481057643890381 -0.0759255513548851013
0.654416680335998535 1.60513937473297119 -0.82224959135055542
-0.808007657527923584 0.663065254688262939 0.692818105220794678
0.25209200382232666 -1.64792907238006592 0.929823577404022217
0.802769482135772705 0.372957110404968262 0.356151849031448364
-0.593011856079101562 -0.000439770519733428955 0.304107517004013062
0.66938173770904541 -0.42152857780456543 -0.241178065538406372
-0.777746975421905518 1.11977720260620117 0.377047210931777954
-0.886792838573455811 -1.09524238109588623 0.666578471660614014
1.17657911777496338 -1.47574222087860107 -0.200528353452682495
0.203078523278236389 1.23725748062133789 0.958734631538391113
-1.08513355255126953 0.982631087303161621 -0.618504941463470459
0.854965686798095703 -0.36631426215171814 -2.00783348083496094
-1.5261836051940918 1.17808914184570312 0.695619344711303711
0.0986404567956924438 0.138903647661209106 -0.327070921659469604
-1.65101563930511475 0.433338761329650879 0.314738541841506958
-0.665952563285827637 -0.348105132579803467 1.58070123195648193
0.350898563861846924 -0.78489220142364502 1.9967339038848877
0.199907273054122925 2.00018429756164551 -0.603729367256164551
1.47406721115112305 -0.241064935922622681 -0.370652198791503906
-0.698536932468414307 0.356938838958740234 0.961340427398681641
-0.404751896858215332 -0.996848046779632568 -0.751132309436798096
1.23965883255004883 -0.673583984375 0.272595047950744629
1.12356102466583252 -0.695988833904266357 -0.590668916702270508
-0.309630692005157471 -0.00777278095483779907 0.929777979850769043
-0.281695693731307983 0.253994107246398926 -0.446687817573547363
0.0814259946346282959 -0.440773308277130127 -0.435733616352081299
3.33259057998657227 0.127287745475769043 0.159748613834381104
0.453022688627243042 1.09103298187255859 -1.36081528663635254
0.442501813173294067 -0.581098198890686035 -0.559507429599761963
-0.287929654121398926 -1.68926119804382324 -1.31145894527435303
0.0253998115658760071 0.149625658988952637 0.569171905517578125
0.637449920177459717 0.931461811065673828 -0.086620032787322998
1.2838360071182251 -0.447222471237182617 2.35718035697937012
0.00193691253662109375 0.484291136264801025 0.247727170586585999
-0.574130773544311523 -0.123598814010620117 0.973187386989593506
0.432129621505737305 0.137114048004150391 0.307116508483886719
-1.76627492904663086 0.945258021354675293 0.0820585861802101135
0.967566132545471191 -1.59396696090698242 -0.276893645524978638
-0.408407032489776611 -0.357676148414611816 -2.62672567367553711
-1.18268561363220215 -0.270083248615264893 -0.582634806632995605
-0.702611565589904785 -1.18443870544433594 -0.277904927730560303
-0.434214919805526733 0.800001561641693115 0.867510735988616943
1.27724289894104004 0.00847663730382919312 -1.67687833309173584
-0.0335881859064102173 0.0511262491345405579 -1.0977180004119873
-2.3313601016998291 -0.516968250274658203 -1.05273401737213135
-1.87090039253234863 0.132800713181495667 0.884515345096588135
0.975055992603302002 1.66006159782409668 0.869736611843109131
0.928685367107391357 -0.759826302528381348 -0.777964472770690918
0.678838074207305908 0.585091590881347656 -0.272211015224456787
-0.798173129558563232 -1.07363760471343994 -0.247595220804214478
0.0965298265218734741 -0.396181255578994751 0.784253299236297607
0.225440442562103271 -0.710594534873962402 -1.36425256729125977
-0.880030632019042969 -0.181281328201293945 -1.59909093379974365
0.0890533998608589172 1.60258388519287109 -1.46613931655883789
1.13474345207214355 0.0809857696294784546 2.04994320869445801
-0.614601612091064453 -1.65057194232940674 0.128812193870544434
1.36030435562133789 0.198578983545303345 -0.60905158519744873
-0.628270208835601807 -1.64066863059997559 0.463153690099716187
0.637661635875701904 1.18551146984100342 -0.146543264389038086
-0.00760495662689208984 2.23128557205200195 1.49972999095916748
-0.473985373973846436 0.189065858721733093 0.0272829905152320862
-1.51595222949981689 -0.468803912401199341 1.17876052856445312
-2.08838391304016113 -0.366304010152816772 2.32628846168518066
0.915923476219177246 0.348018884658813477 0.264130532741546631
0.638345181941986084 0.194049447774887085 -0.635721266269683838
-2.2296440601348877 -0.27481764554977417 1.15743005275726318
-0.978583991527557373 -1.28743505477905273 0.16043446958065033
-0.876151144504547119 -0.353488743305206299 0.494677037000656128
1.08741903305053711 -0.533401370048522949 -0.116611555218696594
0.092892967164516449 0.683840155601501465 0.357950687408447266
0.522555053234100342 1.18869137763977051 -0.877836108207702637
0.896337747573852539 0.38159257173538208 -0.910584926605224609
-0.875235140323638916 -0.460780352354049683 -1.86866164207458496
-0.65534508228302002 0.300668209791183472 -0.568993747234344482
1.21122169494628906 0.448977679014205933 1.59624350070953369
-0.698562562465667725 1.67314410209655762 1.15425634384155273
0.719865500926971436 -1.39879250526428223 0.788404762744903564
-0.110305353999137878 0.018902018666267395 -1.57462012767791748
-0.296353369951248169 0.82721555233001709 -1.29300785064697266
-0.246484905481338501 1.22188055515289307 0.390901327133178711
-0.330254524946212769 0.762212157249450684 0.276715308427810669
0.728745698928833008 -0.637905716896057129 0.149770617485046387
-0.501381218433380127 -0.432004600763320923 1.3819504976272583
-0.346437424421310425 0.348285019397735596 1.46596717834472656
-1.0222548246383667 0.755597472190856934 0.497139394283294678
1.66490375995635986 0.177764177322387695 -1.70891118049621582
-1.09811019897460938 1.25611412525177002 0.534247815608978271
0.339670419692993164 -0.166274338960647583 1.13519406318664551
0.213353991508483887 0.848569810390472412 0.822145402431488037
-0.818125486373901367 -0.430871188640594482 0.4302806556224823
-0.590005993843078613 -0.642097592353820801 0.254658401012420654
0.796590149402618408 -1.14268016815185547 -0.806220948696136475
1.22052288055419922 0.262054592370986938 0.271292150020599365
0.0647858604788780212 -0.251135885715484619 0.971587955951690674
0.374934792518615723 -1.34611380100250244 -1.3824775218963623
-0.0870172753930091858 0.014216400682926178 -0.363785356283187866
0.507979869842529297 0.400929093360900879 -0.540330231189727783
0.494168370962142944 0.891882240772247314 -0.304903268814086914
-0.149801120162010193 -0.538736343383789062 -1.04652166366577148
-0.393706083297729492 -0.14912259578704834 0.607042074203491211
-1.17297077178955078 0.482898354530334473 -0.534830272197723389
-0.32290041446685791 0.646474242210388184 0.151519864797592163
-1.04547858238220215 -1.5772625207901001 0.00717318058013916016
0.335553884506225586 -1.32456398010253906 0.905140221118927002
-0.366154670715332031 -1.49479997158050537 -0.612430214881896973
-0.510774433612823486 -0.022783324122428894 0.421836256980895996
-0.450150668621063232 -0.172110393643379211 0.388309687376022339
-1.52189075946807861 -0.366418719291687012 0.619560956954956055
-1.28296852111816406 -0.708875358104705811 -1.22159349918365479
-1.21700501441955566 0.419187098741531372 -0.740745246410369873
0.485391229391098022 -3.07724785804748535 1.18477964401245117
0.0346950218081474304 -1.69310152530670166 -0.32533574104309082
-1.13049936294555664 0.928174734115600586 0.123866721987724304
-0.304556459188461304 -0.304068803787231445 -0.112093627452850342
0.824318647384643555 -0.000679135322570800781 0.934077441692352295
-2.44651937484741211 0.773232638835906982 -0.554076254367828369
-1.42231309413909912 1.07938849925994873 0.919191598892211914
1.23719227313995361 0.278991997241973877 -0.543864846229553223
0.473282039165496826 -0.674257874488830566 -1.26017308235168457
-1.0673825740814209 -0.965002655982971191 0.337191551923751831
-0.295942455530166626 -0.0837701037526130676 0.339614212512969971
0.0821922793984413147 0.691830337047576904 0.125887393951416016
-0.709037542343139648 0.745020866394042969 -1.48656654357910156
0.691071808338165283 0.785800516605377197 -0.295147895812988281
0.404583215713500977 -1.13489782810211182 0.811510860919952393
-0.0361526608467102051 -0.0191569775342941284 -0.254340469837188721
-1.33947062492370605 -0.3923015296459198 -1.05219995975494385
-0.562183201313018799 0.632867693901062012 0.214421361684799194
0.334173262119293213 -0.0965808108448982239 -1.17083728313446045
0.3433799147605896 0.323455214500427246 0.917278170585632324
0.398719757795333862 -0.782769381999969482 0.38460347056388855
0.0924428179860115051 2.21001172065734863 -2.30132293701171875
0.708842217922210693 1.17414867877960205 0.266070544719696045
1.36346626281738281 0.00425303727388381958 -1.40865623950958252
-1.02526700496673584 -0.930510044097900391 -0.472166985273361206
0.85223686695098877 0.870306611061096191 -0.152890235185623169
0.153954386711120605 0.947368919849395752 -0.208142101764678955
0.320665836334228516 1.95505940914154053 0.318118095397949219
-1.46977341175079346 0.0485158264636993408 0.400537669658660889
-1.64113998413085938 -0.423015415668487549 1.43954873085021973
0.279745101928710938 0.322384566068649292 1.93192398548126221
-0.00696124136447906494 -0.0693108886480331421 0.271330922842025757
-0.309147238731384277 -1.16422188282012939 -0.289252102375030518
-0.605480790138244629 -0.374888420104980469 -0.522796154022216797
-1.01474690437316895 0.801209867000579834 0.912858963012695312
0.726341605186462402 -1.34396207332611084 0.128486692905426025
-0.661857366561889648 0.34907066822052002 0.5072135329246521
0.636457502841949463 0.0503547042608261108 -2.02138233184814453
-0.824915051460266113 -0.412618070840835571 1.05616295337677002
0.555044054985046387 -0.101945400238037109 -0.0138169750571250916
-1.27584731578826904 0.524611353874206543 0.106484770774841309
-1.15531933307647705 0.585839629173278809 -0.216434985399246216
0.430454552173614502 1.0501258373260498 0.260772049427032471
-0.65023958683013916 -1.67462778091430664 -0.624090790748596191
0.445923000574111938 -0.436791151762008667 0.0984159931540489197
0.362047374248504639 -1.6711280345916748 0.474592328071594238
0.69929051399230957 -1.60598635673522949 -0.846557676792144775
0.41909751296043396 -0.788301825523376465 -1.10414326190948486
1.29338514804840088 -0.741668343544006348 -0.959017038345336914
-1.12443351745605469 -1.17972791194915771 -1.0706322193145752
0.875459671020507812 1.43994605541229248 -0.825171530246734619
-0.2995491623878479 1.13529872894287109 -1.04666996002197266
0.170520812273025513 1.52415132522583008 -0.801948726177215576
-0.0892520621418952942 -0.159263491630554199 -1.01529717445373535
-0.360365509986877441 0.0770765542984008789 -0.184347912669181824
-0.0802501663565635681 -0.547591507434844971 0.214448153972625732
1.63281583786010742 -0.272356539964675903 0.18969300389289856
0.0251232609152793884 0.462583631277084351 -0.698737025260925293
0.290591537952423096 0.709416508674621582 0.260340034961700439
0.69820404052734375 -0.365629315376281738 -1.59544944763183594
-0.0354553386569023132 0.0594254806637763977 -0.504469394683837891
-0.672304391860961914 0.39674106240272522 0.48511117696762085
1.42811024188995361 0.290086895227432251 -0.478667974472045898
-0.00118219852447509766 -0.506278514862060547 0.39844965934753418
0.219516158103942871 -1.33385360240936279 -1.17379176616668701
0.443575441837310791 -0.43989640474319458 0.720423102378845215
0.582251250743865967 0.75450366735458374 -0.836484074592590332
0.838289916515350342 0.397004097700119019 -0.0292948558926582336
0.610133349895477295 -1.12548661231994629 0.0345416218042373657
-1.31573665142059326 1.73398685455322266 0.271489441394805908
-0.126681476831436157 -0.759312093257904053 -0.899622440338134766
1.89523088932037354 0.127440363168716431 0.0880576372146606445
-0.343241512775421143 -0.461044281721115112 0.112003691494464874
-0.633514165878295898 0.451071023941040039 -0.969273924827575684
0.698839783668518066 0.875355839729309082 1.27319431304931641
1.60157537460327148 -1.22965514659881592 -0.497159272432327271
-2.0161278247833252 0.769020438194274902 -1.08354628086090088
-0.942126929759979248 -0.542177915573120117 -1.24487185478210449
0.453191101551055908 0.0256841108202934265 0.639054954051971436
0.80987316370010376 0.995489239692687988 -0.844572603702545166
0.428354233503341675 0.983915269374847412 -0.813758730888366699
-2.11703157424926758 -0.789330244064331055 0.756927669048309326
-0.445328682661056519 -0.915847897529602051 -0.403762996196746826
-1.56310999393463135 0.457535535097122192 0.576689660549163818
-0.381908386945724487 0.200454935431480408 -0.320698976516723633
0.138521656394004822 -0.440627038478851318 0.355505257844924927
-0.866991043090820312 1.44029128551483154 -0.153821468353271484
1.04370748996734619 0.289308160543441772 -0.0676723867654800415
-0.631285607814788818 -0.132903903722763062 0.298460692167282104
0.160938218235969543 1.12394511699676514 -0.201950341463088989
0.304396152496337891 -0.923651695251464844 -1.74837064743041992
-0.418791830539703369 -1.12584090232849121 -0.342052936553955078
0.0949274003505706787 0.514213085174560547 0.249774038791656494
0.993899643421173096 0.80398249626159668 0.119635477662086487
-0.258137255907058716 0.130608722567558289 2.66175651550292969
-0.352371275424957275 -0.321321606636047363 0.899313867092132568
0.97668534517288208 -0.816756546497344971 0.853595316410064697
-0.932186305522918701 -0.814257442951202393 -0.451170027256011963
-3.3280632495880127 -0.4020366370677948 0.348540365695953369
0.606882035732269287 -0.694385111331939697 0.709698021411895752
0.532496869564056396 -0.15762484073638916 -1.08461117744445801
0.527803421020507812 -0.334512233734130859 1.83786249160766602
-1.69838571548461914 -1.20380008220672607 -0.316928327083587646
-0.0971473529934883118 0.844357550144195557 0.201646327972412109
0.00016613304615020752 0.752200007438659668 -0.581986010074615479
-2.23540639877319336 -0.18697628378868103 0.116749823093414307
-0.455109119415283203 -1.9089512825012207 -0.193793624639511108
0.628058314323425293 -1.51472663879394531 -1.27501130104064941
-0.387648850679397583 -1.40398550033569336 -0.145854443311691284
-0.0888943374156951904 -0.797421634197235107 1.12635040283203125
1.49077463150024414 -0.453282564878463745 0.360490113496780396
0.082743719220161438 0.407850742340087891 -0.988661050796508789
-1.04884982109069824 0.237616658210754395 -2.23756313323974609
-1.79754936695098877 0.29848673939704895 -0.972344338893890381
0.858280658721923828 0.791049957275390625 0.0334681794047355652
1.17012608051300049 -1.04447519779205322 -0.569456696510314941
-0.542412817478179932 0.0654507800936698914 1.25425910949707031
-1.40973579883575439 -0.22784009575843811 -1.74877834320068359
1.37837028503417969 1.10285019874572754 0.431990921497344971
-0.182700097560882568 0.885237932205200195 0.454178184270858765
1.2125622034072876 1.91475284099578857 0.6504860520362854
0.363758683204650879 -1.32045626640319824 0.38224753737449646
0.254667878150939941 -1.86205387115478516 0.025270417332649231
0.317690879106521606 0.272160053253173828 -0.816080927848815918
0.903954207897186279 1.09488487243652344 0.59920954704284668
-0.0131084248423576355 -1.78471219539642334 1.40438580513000488
0.288491606712341309 -1.68064236640930176 0.394861161708831787
-1.77651286125183105 0.0950245708227157593 0.797500848770141602
-0.148268580436706543 0.103492133319377899 -0.0611825510859489441
0.107387691736221313 -1.4361574649810791 0.354689598083496094
-1.12616503238677979 2.67570853233337402 -0.926311492919921875
1.50299966335296631 -0.0910314619541168213 1.11246788501739502
0.772136688232421875 0.648225009441375732 -0.796648740768432617
1.30814540386199951 -1.23112547397613525 0.605351924896240234
0.832351088523864746 1.1833488941192627 -0.0140237510204315186
0.518682777881622314 -0.694604158401489258 -2.50677680969238281
-1.26101279258728027 -1.61527442932128906 -0.911495625972747803
-1.30155026912689209 -0.462607800960540771 0.824418783187866211
-0.716682851314544678 -1.04783213138580322 -1.74384069442749023
-0.822576045989990234 0.459617674350738525 1.50089740753173828
0.307753682136535645 -0.547153830528259277 0.264230340719223022
1.15580999851226807 0.0908540412783622742 -0.368789941072463989
-0.291983753442764282 -0.306731522083282471 -1.52766656875610352
0.543616950511932373 0.13792794942855835 0.859245598316192627
0.0363234132528305054 0.81044316291809082 -0.05907459557056427
1.56158947944641113 0.275109946727752686 -0.779574334621429443
-0.25278472900390625 -1.48116075992584229 1.48158764839172363
-0.396213740110397339 1.53219294548034668 -0.862867891788482666
-0.0216672793030738831 -0.134354770183563232 0.424120932817459106
0.574303090572357178 -0.339122951030731201 -0.83380591869354248
-0.089137345552444458 1.54798591136932373 0.0524471774697303772
0.977752745151519775 -0.225968793034553528 -0.0135227218270301819
0.899662494659423828 0.248741716146469116 -0.900773048400878906
0.873148977756500244 2.37657332420349121 1.55092597007751465
-0.533346116542816162 -1.44198274612426758 0.846281468868255615
-0.00453080981969833374 0.170415103435516357 -1.27092075347900391
1.4571455717086792 -0.187961786985397339 -0.697062134742736816
0.0716925784945487976 -0.583215177059173584 0.799830377101898193
0.152214765548706055 -0.259661406278610229 0.676038742065429688
-1.60346412658691406 -0.469063729047775269 -0.146724909543991089
-1.14044606685638428 -2.25877737998962402 -1.42242896556854248
0.492439806461334229 0.675581455230712891 -0.994049727916717529
1.69825589656829834 0.286450862884521484 -0.797480165958404541
0.454944819211959839 -0.703730463981628418 -0.914892196655273438
-0.235247164964675903 1.06965041160583496 -0.271463096141815186
-0.0994457826018333435 0.995530962944030762 0.956107974052429199
-2.02949118614196777 -0.080367647111415863 -0.625055789947509766
-0.0473346114158630371 -3.25931000709533691 0.16830761730670929
-1.55536520481109619 0.715568423271179199 -0.0338581949472427368
0.678952395915985107 0.417261183261871338 -0.131296038627624512
0.34401470422744751 -1.19884133338928223 0.2802409827709198
-1.78945541381835938 -0.13510480523109436 -0.11365024745464325
0.349296867847442627 0.0821226015686988831 -3.03617525100708008
-1.32743954658508301 -0.838691413402557373 0.013107694685459137
0.305988073348999023 -0.65342867374420166 0.870098114013671875
0.360485374927520752 -0.919157981872558594 0.319540619850158691
0.691577732563018799 0.431140542030334473 1.38927817344665527
0.131213486194610596 -0.0198540911078453064 0.242965549230575562
0.957058727741241455 -1.11604404449462891 -0.409356385469436646
0.164972901344299316 -0.678239226341247559 -1.36644983291625977
2.16420722007751465 -0.538634598255157471 -0.506168723106384277
0.30363541841506958 -0.222736626863479614 -0.845282912254333496
0.32684287428855896 -0.185389816761016846 -1.3349003791809082
0.172335162758827209 -0.737623691558837891 -0.692595839500427246
0.616063892841339111 -0.372969269752502441 0.873363196849822998
-0.86062091588973999 0.792145371437072754 -1.49463939666748047
0.359408646821975708 -0.544202744960784912 0.424852222204208374
-0.0702403560280799866 -2.44293880462646484 1.49346661567687988
-0.800782918930053711 0.590771079063415527 -0.388878017663955688
1.43518197536468506 1.24014568328857422 0.0989817902445793152
0.415118604898452759 -1.28001046180725098 -0.945428311824798584
-0.0760361924767494202 -1.9129948616027832 -0.701360762119293213
0.313179373741149902 0.291676878929138184 0.700095415115356445
0.499508678913116455 -0.625352144241333008 -0.672177493572235107
0.13687819242477417 -0.506189465522766113 0.358292371034622192
0.960966646671295166 0.857338666915893555 0.710831701755523682
-0.60660398006439209 -0.91534423828125 -0.0497908666729927063
0.46030879020690918 0.266999602317810059 -1.11215388774871826
-0.319687962532043457 0.152433022856712341 -0.522187888622283936
-0.345975041389465332 -0.0389917641878128052 -0.447595864534378052
-0.337977170944213867 -0.0959986373782157898 0.265039920806884766
1.13146817684173584 0.70079958438873291 0.367568105459213257
1.22868716716766357 0.0137287527322769165 -0.203160136938095093
-1.23129582405090332 -0.924118459224700928 1.20016634464263916
-0.745068907737731934 0.385926485061645508 -0.958672463893890381
-0.62165600061416626 -1.11803662776947021 0.356829404830932617
0.960299372673034668 -1.81484866142272949 0.372462987899780273
-0.14606088399887085 0.292235732078552246 -1.37430810928344727
-0.341149330139160156 -1.01746046543121338 -0.546834468841552734
1.8628237247467041 0.499704241752624512 1.29838800430297852
-0.841475248336791992 1.56338667869567871 0.0238892883062362671
0.649083852767944336 0.293960303068161011 -0.320305705070495605
-0.627058327198028564 -0.742782115936279297 -0.161088556051254272
0.364248692989349365 1.23224425315856934 -2.78048110008239746
-0.835658073425292969 0.810623705387115479 0.505002319812774658
-0.580846250057220459 -0.641960501670837402 0.401895135641098022
-1.43741428852081299 -1.26648497581481934 1.54808986186981201
-0.690467953681945801 -0.489523053169250488 1.13235485553741455
-0.706339478492736816 -0.619970619678497314 -2.34990334510803223
1.0990222692489624 1.30999016761779785 0.608785927295684814
1.06090259552001953 -0.346033215522766113 2.28725433349609375
-0.18753659725189209 -1.38474440574645996 -0.539550960063934326
-0.161918342113494873 0.285102933645248413 -0.325025320053100586
-0.990207076072692871 0.359195560216903687 1.76834464073181152
-0.472233682870864868 1.98828983306884766 0.552102267742156982
-0.529338300228118896 -0.258199691772460938 0.37729683518409729
-0.0343811735510826111 -1.28912031650543213 1.07634913921356201
0.0154378488659858704 0.36674383282661438 -1.89069700241088867
0.619629204273223877 -0.832497119903564453 -0.15228193998336792
1.51059019565582275 1.07190620899200439 0.0632421448826789856
0.170549064874649048 0.52212071418762207 -0.898574173450469971
0.413814723491668701 0.849431633949279785 -0.636412143707275391
0.975688636302947998 -0.627335786819458008 -0.46814003586769104
0.0500099882483482361 1.79317307472229004 -1.85921299457550049
0.26948961615562439 0.622617423534393311 -0.701680898666381836
-0.274996161460876465 2.25142383575439453 -1.33864855766296387
-0.564286708831787109 -0.367455750703811646 -0.142922684550285339
-1.20299553871154785 -0.791860520839691162 0.349385082721710205
0.7952842116355896 2.48486876487731934 -1.22223794460296631
1.83673787117004395 1.44624769687652588 -1.72097063064575195
1.01146328449249268 -0.743150115013122559 -0.137914851307868958
-1.03257787227630615 1.63685822486877441 0.512405574321746826
0.765208542346954346 -0.0635285377502441406 -0.0220177695155143738
-0.762813568115234375 0.572824478149414062 0.237189590930938721
0.391124129295349121 1.51490616798400879 0.435687750577926636
-0.318369448184967041 -0.197351753711700439 0.484827429056167603
-0.0731362476944923401 -0.547786891460418701 -0.424052178859710693
0.346028298139572144 -1.02720952033996582 0.252972543239593506
0.0798785984516143799 0.927090048789978027 0.512749910354614258
0.58315122127532959 0.738376855850219727 -0.351050108671188354
0.481332361698150635 -0.0323344022035598755 -0.257335573434829712
0.286178916692733765 -1.57479441165924072 2.70703697204589844
1.21376502513885498 -1.18152749538421631 1.27837598323822021
0.0628139898180961609 0.631875693798065186 0.195582360029220581
0.967513024806976318 0.118474841117858887 -0.618115782737731934
-0.484979748725891113 0.712782979011535645 -0.66707301139831543
0.568668365478515625 0.119549036026000977 0.150900080800056458
0.598447084426879883 -0.140979558229446411 0.0073097720742225647
-0.880677938461303711 -0.344047307968139648 -1.39374041557312012
2.95261907577514648 0.783844351768493652 0.195123970508575439
0.115516036748886108 -0.920179486274719238 0.741103947162628174
-0.407041698694229126 1.46245229244232178 -0.351124674081802368
0.534226059913635254 1.39533674716949463 -0.288830757141113281
-0.455008447170257568 -0.343583524227142334 -0.298074543476104736
0.12002919614315033 1.36157166957855225 0.77938997745513916
0.487738817930221558 -0.247403755784034729 -0.972667694091796875
2.23644590377807617 0.102387383580207825 -0.0810498371720314026
-1.23972892761230469 -1.33450055122375488 0.835481941699981689
-0.990162074565887451 -0.51306682825088501 0.450242668390274048
0.258740544319152832 0.296321690082550049 1.60989189147949219
-0.309991240501403809 -0.299295812845230103 0.896341443061828613
-1.27043569087982178 -0.276439309120178223 1.06734538078308105
-0.354286402463912964 0.216692298650741577 -0.425353169441223145
0.0189305916428565979 0.474806606769561768 -0.422500818967819214
-0.296061247587203979 0.0163615942001342773 0.736877799034118652
-0.00465315580368041992 -0.680848240852355957 1.5672067403793335
0.208011269569396973 1.2328941822052002 -0.972982406616210938
-0.964388370513916016 -0.104453690350055695 -0.140003025531768799
-0.351460635662078857 0.510051190853118896 1.25917136669158936
0.778586268424987793 -0.0827236101031303406 0.282617807388305664
0.622014999389648438 -0.294352054595947266 -0.333764046430587769
-0.953648805618286133 0.601611971855163574 -0.770743429660797119
0.549930810928344727 -0.00486848503351211548 1.44110226631164551
