ply
format ascii 1.0
element vertex 752
comment vertices
property float x
property float y
property float z
end_header
-0.165349453687667847 -0.417347967624664307 0.405336439609527588
0.00878279563039541245 -0.398889869451522827 0.34684145450592041
0.0160789135843515396 0.504195153713226318 0.292197555303573608
0.375626623630523682 0.343844741582870483 0.140284493565559387
0.554127395153045654 0.198234319686889648 0.104895047843456268
0.444817841053009033 -0.0239186268299818039 0.326512038707733154
-0.637515783309936523 -0.357830077409744263 0.377084463834762573
-0.173834607005119324 -0.41725844144821167 0.392562687397003174
0.572266936302185059 0.286670386791229248 0.0621623136103153229
-0.652003347873687744 -0.342582046985626221 0.372814834117889404
-0.245129182934761047 -0.427635401487350464 0.418376892805099487
0.500405669212341309 0.00404345430433750153 0.316224634647369385
0.378269791603088379 -0.123198471963405609 0.357613742351531982
0.349564671516418457 -0.172210648655891418 0.369772285223007202
0.212113425135612488 0.484532594680786133 0.286935925483703613
0.303355872631072998 -0.267418086528778076 0.35986095666885376
-0.6438140869140625 -0.297674626111984253 0.373511731624603271
0.396776646375656128 0.330515027046203613 0.16099826991558075
0.553550839424133301 0.296668976545333862 0.0591473877429962158
0.499625653028488159 0.143591567873954773 0.2244759202003479
0.32302170991897583 -0.230119779706001282 0.357470005750656128
0.287855565547943115 0.435639917850494385 0.262151628732681274
0.54427039623260498 0.220050498843193054 0.115324303507804871
0.442882806062698364 0.288974732160568237 0.122313208878040314
0.377969056367874146 -0.134344249963760376 0.344434738159179688
0.270217597484588623 -0.286802440881729126 0.324916273355484009
0.51141732931137085 0.12741522490978241 0.254266053438186646
0.322954863309860229 -0.236359581351280212 0.354747861623764038
0.259831786155700684 -0.301907509565353394 0.321776390075683594
0.51315993070602417 0.16359458863735199 0.209837377071380615
-0.188581228256225586 -0.424311578273773193 0.409289658069610596
0.015698624774813652 -0.401021450757980347 0.340607434511184692
0.357942193746566772 -0.199393734335899353 0.376863390207290649
0.029470350593328476 -0.379960507154464722 0.342549353837966919
0.53738701343536377 0.292269349098205566 0.0597189925611019135
0.312373965978622437 -0.216508686542510986 0.369619756937026978
0.347289353609085083 0.380747467279434204 0.214038297533988953
0.546123385429382324 0.304887652397155762 0.0726640522480010986
0.59214174747467041 0.230758741497993469 0.0532668940722942352
0.0659963488578796387 -0.382682085037231445 0.341672569513320923
-0.634296178817749023 -0.376990765333175659 0.38648521900177002
-0.0128839276731014252 -0.406065374612808228 0.330944687128067017
0.578062236309051514 0.243492648005485535 0.083144068717956543
0.516835033893585205 0.161565229296684265 0.173812642693519592
0.364800006151199341 0.344797581434249878 0.181691214442253113
0.339464753866195679 0.417870640754699707 0.226749569177627563
0.552351713180541992 0.23831622302532196 0.0131171811372041702
0.231164872646331787 -0.316686272621154785 0.336354106664657593
0.564042985439300537 0.25094565749168396 0.0671695172786712646
0.220448195934295654 0.447982758283615112 0.32960847020149231
0.456339776515960693 -0.0227989926934242249 0.341895103454589844
0.249563232064247131 -0.287471622228622437 0.345546960830688477
0.403589248657226562 0.347762376070022583 0.164011895656585693
0.524731993675231934 0.168670788407325745 0.154791980981826782
0.506551146507263184 0.0498861707746982574 0.306714892387390137
0.435546427965164185 -0.0821546688675880432 0.334262549877166748
0.0296841245144605637 -0.381684541702270508 0.345620930194854736
0.0486801937222480774 0.491227775812149048 0.296199232339859009
0.139770835638046265 0.474841117858886719 0.278377056121826172
0.499858945608139038 0.101445108652114868 0.253191322088241577
0.49982374906539917 0.12846924364566803 0.234975382685661316
-0.384372293949127197 -0.445443212985992432 0.401823252439498901
0.445967644453048706 -0.0391773693263530731 0.326691538095474243
0.481193989515304565 0.0163644663989543915 0.325153470039367676
0.316052615642547607 -0.201438754796981812 0.382879018783569336
0.271403878927230835 0.440549790859222412 0.247435539960861206
-0.606804490089416504 -0.403575986623764038 0.391835212707519531
0.535697460174560547 0.147678077220916748 0.195404559373855591
0.496627151966094971 0.0646734237670898438 0.30041089653968811
-0.176259815692901611 -0.421794205904006958 0.406490504741668701
0.313012152910232544 -0.21270713210105896 0.384196251630783081
0.108161143958568573 -0.367790699005126953 0.328283518552780151
0.371660947799682617 -0.121940664947032928 0.352444291114807129
0.223066151142120361 -0.295154154300689697 0.319829761981964111
0.140936270356178284 0.480448067188262939 0.277295827865600586
0.456299692392349243 0.297152549028396606 0.120098479092121124
0.529448151588439941 0.189818054437637329 0.137295052409172058
0.0706124603748321533 0.49975883960723877 0.279607981443405151
0.534395217895507812 0.146023571491241455 0.195551007986068726
0.526767969131469727 0.117675513029098511 0.241410791873931885
0.353242397308349609 0.35803648829460144 0.192007005214691162
0.499292939901351929 0.129004806280136108 0.241479545831680298
0.570809841156005859 0.201939180493354797 0.123772747814655304
-0.15959496796131134 -0.419583737850189209 0.399093329906463623
0.509042143821716309 0.249213755130767822 -0.00259849918074905872
0.473541229963302612 0.305864721536636353 0.0906471461057662964
0.465942114591598511 -0.0574729777872562408 0.342096328735351562
0.499440431594848633 0.0950645655393600464 0.280032098293304443
0.49997401237487793 0.126084595918655396 0.222601577639579773
0.499669045209884644 0.0710101425647735596 0.25967174768447876
0.131621390581130981 -0.355458915233612061 0.337977826595306396
0.322240173816680908 -0.218143358826637268 0.361748725175857544
0.225141510367393494 -0.312770485877990723 0.311946868896484375
-0.219587713479995728 -0.426714688539505005 0.419412225484848022
0.13678373396396637 -0.337682515382766724 0.316487878561019897
0.589691102504730225 0.252715408802032471 0.0398886874318122864
-0.508020877838134766 -0.431228160858154297 0.420228332281112671
0.454554051160812378 -0.0507117398083209991 0.320762395858764648
-0.428107023239135742 -0.43869444727897644 0.420253276824951172
0.379191547632217407 -0.124976262450218201 0.377513617277145386
0.425748348236083984 0.321686267852783203 0.115168415009975433
0.222065597772598267 -0.319371134042739868 0.317819893360137939
0.490448206663131714 -0.00427372567355632782 0.301752626895904541
0.546326696872711182 0.278869539499282837 0.0386027507483959198
0.178272858262062073 -0.336529821157455444 0.311383455991744995
0.00151059019844979048 0.50230252742767334 0.313165515661239624
-0.0907411947846412659 -0.418033301830291748 0.324839174747467041
0.529021859169006348 0.23312927782535553 -0.0254922490566968918
0.297923028469085693 0.430420100688934326 0.25319671630859375
0.521665990352630615 0.184518724679946899 0.165998399257659912
0.481627225875854492 0.0388554073870182037 0.297976404428482056
0.444515317678451538 0.297965764999389648 0.123440161347389221
-0.139188721776008606 -0.429931819438934326 0.346552044153213501
0.590862452983856201 0.230797320604324341 0.0581238977611064911
0.516804099082946777 0.0669102519750595093 0.267970055341720581
0.579282224178314209 0.269064635038375854 0.0390075519680976868
0.499978333711624146 0.124030590057373047 0.240868642926216125
0.45673447847366333 0.312550604343414307 0.107317164540290833
0.489592611789703369 -0.0148147838190197945 0.335680782794952393
0.296167641878128052 0.445444494485855103 0.265103578567504883
0.382031053304672241 0.321538418531417847 0.165404126048088074
0.54408562183380127 0.210548505187034607 0.10883176326751709
0.508840382099151611 0.0273216702044010162 0.306571722030639648
-0.599158585071563721 -0.392836213111877441 0.394073396921157837
0.129505738615989685 0.451603204011917114 0.364988893270492554
0.466520845890045166 0.307434916496276855 0.108943305909633636
0.543431520462036133 0.158812373876571655 0.178690627217292786
0.462094634771347046 0.000522932270541787148 0.326654106378555298
0.458157062530517578 -0.0401481129229068756 0.346697241067886353
-0.642946243286132812 -0.269243031740188599 0.367221921682357788
0.463679373264312744 -0.00565986009314656258 0.334498614072799683
0.348348915576934814 -0.164111688733100891 0.386823743581771851
0.475234627723693848 -0.0402202308177947998 0.328169137239456177
0.120793797075748444 0.494355559349060059 0.279366821050643921
0.380206406116485596 0.359994083642959595 0.19000573456287384
0.447617053985595703 -0.0760324224829673767 0.339740276336669922
0.497649997472763062 0.0363012887537479401 0.286324620246887207
0.0275538265705108643 0.508460938930511475 0.297294020652770996
0.364970922470092773 -0.166730239987373352 0.331210583448410034
0.500226855278015137 0.0101036205887794495 0.317398488521575928
0.131615504622459412 -0.34019055962562561 0.331805169582366943
0.374850273132324219 -0.140740320086479187 0.387416601181030273
0.230324700474739075 -0.296085447072982788 0.33949589729309082
0.0210841242223978043 -0.395727843046188354 0.34572640061378479
0.480276912450790405 -0.0108818868175148964 0.310808479785919189
0.537743628025054932 0.165424630045890808 0.160942181944847107
0.544671356678009033 0.201267391443252563 0.126402989029884338
0.35252910852432251 0.389211952686309814 0.213828146457672119
0.570112287998199463 0.243814945220947266 0.00856060069054365158
0.569423794746398926 0.201237455010414124 0.117192678153514862
0.17118719220161438 0.486541926860809326 0.292642802000045776
0.328005075454711914 -0.19542202353477478 0.374698638916015625
0.124760791659355164 -0.363010913133621216 0.328096896409988403
0.373887240886688232 0.332631021738052368 0.14019264280796051
0.578621029853820801 0.265919893980026245 0.0422169379889965057
0.32459104061126709 0.428232491016387939 0.23611779510974884
0.338721334934234619 0.377422720193862915 0.186770588159561157
0.261516451835632324 -0.298934638500213623 0.31688198447227478
0.372080296277999878 -0.148243457078933716 0.34443897008895874
0.233040139079093933 0.456048697233200073 0.308945745229721069
0.545394301414489746 0.174971222877502441 0.145119622349739075
0.561089277267456055 0.187641367316246033 0.136492311954498291
0.171627506613731384 0.474347084760665894 0.296392977237701416
0.349534064531326294 -0.151734083890914917 0.368726164102554321
0.385400325059890747 -0.108090929687023163 0.350951671600341797
0.0094234393909573555 -0.383966803550720215 0.351287424564361572
0.194880008697509766 0.479625076055526733 0.291697442531585693
0.14537300169467926 -0.335862487554550171 0.316563934087753296
0.266853392124176025 0.467919707298278809 0.266459941864013672
0.120292596518993378 0.491401970386505127 0.275208115577697754
0.177734285593032837 0.47663310170173645 0.27358633279800415
0.528264403343200684 0.242662742733955383 0.00796552374958992004
-0.632974207401275635 -0.305788159370422363 0.372508347034454346
0.591282904148101807 0.230704009532928467 0.0659648999571800232
0.424481034278869629 -0.0566268488764762878 0.333711236715316772
-0.447350502014160156 -0.431458026170730591 0.429904669523239136
0.570265531539916992 0.246972948312759399 0.0793883726000785828
0.570137858390808105 0.211636647582054138 0.135793611407279968
-0.26761588454246521 -0.429421663284301758 0.406971484422683716
0.348899334669113159 0.354242891073226929 0.183014482259750366
0.398924142122268677 -0.103350363671779633 0.365985989570617676
-0.154119059443473816 -0.420045256614685059 0.385961920022964478
0.339298933744430542 0.363005071878433228 0.189373329281806946
0.0738720223307609558 0.499202221632003784 0.275603681802749634
0.50052255392074585 0.0748426243662834167 0.278263688087463379
0.581253647804260254 0.261479854583740234 0.0369434952735900879
0.334972739219665527 -0.229029074311256409 0.367676019668579102
0.429593920707702637 0.292047679424285889 0.126116335391998291
0.152827292680740356 -0.344478696584701538 0.313028097152709961
0.0265227500349283218 -0.396082580089569092 0.333185791969299316
0.0154396491125226021 0.508391022682189941 0.298050075769424438
0.0876026749610900879 0.493928670883178711 0.288996905088424683
0.116801463067531586 -0.359548866748809814 0.336136072874069214
-0.214793220162391663 -0.426848918199539185 0.41094660758972168
0.501830160617828369 0.292000144720077515 0.0742676481604576111
0.29092445969581604 0.462003767490386963 0.275333523750305176
0.363762021064758301 0.33820575475692749 0.147527515888214111
0.321664512157440186 0.39472728967666626 0.217307865619659424
0.526967108249664307 0.113371185958385468 0.222533375024795532
0.324804246425628662 0.404458194971084595 0.204880505800247192
0.491805344820022583 -0.0167442932724952698 0.324173569679260254
0.551032960414886475 0.171974450349807739 0.158021584153175354
0.16878664493560791 -0.345301926136016846 0.332767963409423828
0.51664656400680542 0.0737888738512992859 0.292269438505172729
0.346357256174087524 0.357804030179977417 0.170915648341178894
0.570874929428100586 0.214624717831611633 0.126230567693710327
0.0690536051988601685 0.499777615070343018 0.280590027570724487
-0.132001057267189026 -0.422204554080963135 0.358115792274475098
0.449350893497467041 0.284002155065536499 0.108292050659656525
-0.486363589763641357 -0.418850988149642944 0.427064985036849976
-0.105253331363201141 -0.418114721775054932 0.327711373567581177
0.581373989582061768 0.22102026641368866 0.109635576605796814
0.352800816297531128 -0.190719172358512878 0.390546917915344238
-0.00901146139949560165 0.498777240514755249 0.308887600898742676
-0.140006870031356812 -0.422585040330886841 0.346649110317230225
0.154788732528686523 0.490945965051651001 0.286745011806488037
0.0307565834373235703 -0.397522658109664917 0.336317151784896851
0.304205089807510376 0.420296430587768555 0.229003787040710449
0.0521879047155380249 -0.39075276255607605 0.325730055570602417
0.517916500568389893 0.218745172023773193 0.00762961385771632195
0.518113911151885986 0.185478374361991882 0.173904821276664734
0.356481611728668213 0.36216437816619873 0.163399741053581238
-0.239673331379890442 -0.427702128887176514 0.418582677841186523
0.51927870512008667 0.167519301176071167 0.161720797419548035
0.504913687705993652 0.0285447407513856888 0.290986299514770508
0.0882014557719230652 0.486828207969665527 0.288830935955047607
0.266438692808151245 -0.272692173719406128 0.350597560405731201
-0.00422667106613516808 -0.396041363477706909 0.329845249652862549
0.499897986650466919 0.110989272594451904 0.237984791398048401
0.0417911410331726074 0.496600896120071411 0.297702372074127197
0.333310365676879883 0.39885413646697998 0.227452129125595093
0.399675071239471436 0.307406991720199585 0.146109193563461304
0.329071134328842163 -0.222707390785217285 0.384473145008087158
0.0967800244688987732 0.454979538917541504 0.366901934146881104
0.40007367730140686 -0.121913321316242218 0.344219803810119629
0.556015372276306152 0.264202684164047241 -0.00105916126631200314
0.482564181089401245 0.0211260560899972916 0.321502655744552612
0.439351320266723633 -0.0477597564458847046 0.350789129734039307
0.5627555251121521 0.28605613112449646 0.039293486624956131
0.572753489017486572 0.200491473078727722 0.120744675397872925
0.508046150207519531 0.233341574668884277 -0.0165580715984106064
0.0528308823704719543 -0.363338500261306763 0.331201791763305664
0.0707708150148391724 0.499100983142852783 0.280761301517486572
0.509260773658752441 0.253283679485321045 -0.00761170592159032822
0.490828484296798706 -0.0100475065410137177 0.320861846208572388
0.328061103820800781 0.392565637826919556 0.223151952028274536
0.272902250289916992 -0.273026704788208008 0.328897744417190552
0.486308366060256958 -0.0252960212528705597 0.315574735403060913
0.207495599985122681 0.467883795499801636 0.293378174304962158
-0.639986395835876465 -0.346672743558883667 0.381895601749420166
0.500019431114196777 0.0978162586688995361 0.252093076705932617
0.111407347023487091 -0.365251660346984863 0.32093474268913269
0.544368207454681396 0.272064328193664551 0.0348077118396759033
0.374735623598098755 0.337038487195968628 0.141633570194244385
0.503420174121856689 0.297742635011672974 0.104193024337291718
0.526871263980865479 0.0998056158423423767 0.264528155326843262
0.439105987548828125 -0.0580455511808395386 0.356757670640945435
0.501070678234100342 0.248646914958953857 -0.037025943398475647
-0.438290297985076904 -0.42041894793510437 0.424449712038040161
0.499748051166534424 0.0752070844173431396 0.273496866226196289
0.400403052568435669 0.346485674381256104 0.159140646457672119
0.277013927698135376 -0.266500979661941528 0.334171533584594727
0.526130318641662598 0.295764356851577759 0.0985900312662124634
0.566205143928527832 0.238426178693771362 0.0914296284317970276
-0.0778790190815925598 -0.430149435997009277 0.32837367057800293
0.560171425342559814 0.226557537913322449 0.0750850886106491089
0.182258009910583496 -0.330921590328216553 0.336921811103820801
0.275407642126083374 0.434807687997817993 0.255913823843002319
0.375742495059967041 -0.153954252600669861 0.380347281694412231
0.222742751240730286 0.478387236595153809 0.284283548593521118
0.25130811333656311 0.464609324932098389 0.312777221202850342
0.542226970195770264 0.196443557739257812 0.167197823524475098
0.489438503980636597 -0.00775632588192820549 0.329867303371429443
0.553404152393341064 0.192291811108589172 0.165431633591651917
0.347711414098739624 0.410069078207015991 0.215959832072257996
-0.232103660702705383 -0.430576682090759277 0.413368910551071167
0.286407262086868286 0.43040013313293457 0.244865447282791138
0.210647985339164734 -0.328653633594512939 0.327966868877410889
-0.000949578708969056606 -0.396042823791503906 0.347723156213760376
0.368061423301696777 0.380769997835159302 0.178714022040367126
0.430434703826904297 0.314745664596557617 0.139415308833122253
0.517228603363037109 0.0562092699110507965 0.301362842321395874
0.422129392623901367 0.29593166708946228 0.123354420065879822
0.328685998916625977 0.385827600955963135 0.213065311312675476
0.473768055438995361 -0.0514367334544658661 0.331668049097061157
0.273398429155349731 -0.293362617492675781 0.325446903705596924
0.589996516704559326 0.249814838171005249 0.0603166259825229645
-0.652226567268371582 -0.332718044519424438 0.373851001262664795
0.4639301598072052 -0.0499113909900188446 0.325725942850112915
0.446611166000366211 0.308669507503509521 0.0938174799084663391
-0.0753919929265975952 -0.426832139492034912 0.332314729690551758
0.325742453336715698 0.398965716361999512 0.196589916944503784
0.497386544942855835 0.0520630143582820892 0.278500944375991821
0.268383234739303589 0.468088477849960327 0.266337662935256958
0.358654826879501343 0.39809003472328186 0.219559788703918457
0.205954566597938538 0.437483876943588257 0.343931972980499268
0.508442163467407227 0.12337987869977951 0.206817612051963806
0.514529228210449219 0.0865173712372779846 0.245266035199165344
0.366259068250656128 -0.168676391243934631 0.377556711435317993
0.273478657007217407 -0.261752128601074219 0.340598970651626587
0.410711467266082764 0.3133963942527771 0.112998336553573608
0.0537153333425521851 0.495524168014526367 0.28831934928894043
0.241237834095954895 0.450681328773498535 0.311407119035720825
0.219968825578689575 0.475971698760986328 0.28728407621383667
0.527262568473815918 0.0991818532347679138 0.246732786297798157
0.499090522527694702 0.0436835289001464844 0.314337283372879028
0.527279198169708252 0.109757758677005768 0.235095545649528503
0.519199371337890625 0.186524286866188049 0.155999302864074707
-0.567974388599395752 -0.400909066200256348 0.401983082294464111
0.499301552772521973 0.153478905558586121 0.195901736617088318
-0.244864404201507568 -0.439664155244827271 0.405164480209350586
0.243191853165626526 -0.294408291578292847 0.344100892543792725
0.54559093713760376 0.19829966127872467 0.111458279192447662
0.334786266088485718 -0.18074353039264679 0.388980507850646973
0.400001078844070435 -0.122494645416736603 0.366441428661346436
0.53003084659576416 0.175516262650489807 0.195811793208122253
0.542422771453857422 0.241375923156738281 -0.0187897421419620514
0.398803353309631348 0.351512789726257324 0.165741473436355591
0.0800739973783493042 0.506217718124389648 0.277266740798950195
-0.170413881540298462 -0.423298686742782593 0.38892674446105957
0.33241647481918335 -0.235406011343002319 0.37098383903503418
0.48952755331993103 0.0689690485596656799 0.293727725744247437
0.375363916158676147 -0.118021465837955475 0.346007943153381348
0.497400790452957153 0.236588627099990845 -0.00664067268371582031
0.304677963256835938 0.423180431127548218 0.227606594562530518
0.51740419864654541 0.0694602653384208679 0.264324665069580078
-0.416450828313827515 -0.429742574691772461 0.411865860223770142
0.343293607234954834 0.401268690824508667 0.195416763424873352
0.392033427953720093 -0.135473147034645081 0.365684151649475098
0.531751334667205811 0.183647990226745605 0.185574620962142944
0.257971525192260742 0.467317432165145874 0.300324738025665283
0.340669810771942139 -0.177899017930030823 0.391928017139434814
-0.148859202861785889 -0.422789543867111206 0.352224886417388916
0.252800941467285156 0.450887113809585571 0.263115614652633667
0.572937548160552979 0.205561533570289612 0.133095160126686096
0.0225994735956192017 -0.400634557008743286 0.335935652256011963
0.343877881765365601 0.420567244291305542 0.222505494952201843
0.509228527545928955 0.0346871465444564819 0.307782799005508423
0.0298914555460214615 -0.397333830595016479 0.342412948608398438
0.223485127091407776 -0.290429532527923584 0.329497605562210083
-0.26810029149055481 -0.440506130456924438 0.404494285583496094
0.4665718674659729 -0.0343053154647350311 0.347828537225723267
0.074026547372341156 -0.354085475206375122 0.331225186586380005
0.489999949932098389 0.245137915015220642 -0.0141879906877875328
0.174119517207145691 -0.3360271155834198 0.335788071155548096
0.232556208968162537 -0.314137488603591919 0.339304149150848389
0.557605445384979248 0.238568410277366638 0.0139301186427474022
0.40316203236579895 -0.0840080007910728455 0.361770510673522949
0.181169360876083374 -0.337488621473312378 0.315888524055480957
0.339348852634429932 0.419245213270187378 0.226365640759468079
0.00289916922338306904 -0.403143882751464844 0.336300402879714966
0.320837289094924927 -0.247003331780433655 0.373098075389862061
0.487134486436843872 0.00145833718124777079 0.332638829946517944
0.202964767813682556 0.474342525005340576 0.288490951061248779
0.346971064805984497 0.380473792552947998 0.213188424706459045
0.482315003871917725 0.302406966686248779 0.0907090529799461365
-0.214692696928977966 -0.424744606018066406 0.408727347850799561
0.0716119483113288879 -0.369009613990783691 0.343509554862976074
0.399122893810272217 -0.118042215704917908 0.369911789894104004
-0.143140256404876709 -0.425008296966552734 0.379721701145172119
-0.633597910404205322 -0.323404550552368164 0.370540440082550049
0.555921733379364014 0.22666892409324646 0.0599347427487373352
0.319309473037719727 0.390178382396697998 0.205441117286682129
0.340634375810623169 0.372769147157669067 0.177916169166564941
0.205067560076713562 -0.322402060031890869 0.309845626354217529
0.56614762544631958 0.226437434554100037 0.0586168728768825531
0.441791534423828125 -0.0771541595458984375 0.351706147193908691
0.536259889602661133 0.14047202467918396 0.215697556734085083
0.54142075777053833 0.165664047002792358 0.157244965434074402
0.475839883089065552 0.283853381872177124 0.0952088683843612671
0.499305397272109985 0.118034400045871735 0.253541529178619385
-0.634088039398193359 -0.274823635816574097 0.366925269365310669
0.0956266149878501892 0.50383913516998291 0.286761939525604248
0.182220727205276489 0.447668939828872681 0.354286789894104004
0.345545023679733276 -0.15075075626373291 0.371147394180297852
-0.639880359172821045 -0.281684368848800659 0.372778505086898804
0.532594799995422363 0.228353545069694519 -0.0131174465641379356
0.596074044704437256 0.240967214107513428 0.0664966106414794922
0.508353173732757568 0.0713863447308540344 0.300973981618881226
0.145428106188774109 0.489144593477249146 0.276868313550949097
-0.64370352029800415 -0.300913989543914795 0.372120678424835205
0.174188271164894104 0.436197489500045776 0.358078598976135254
0.527208626270294189 0.0950718224048614502 0.270397305488586426
0.545415639877319336 0.248026013374328613 0.030867232009768486
0.252765774726867676 -0.289727360010147095 0.349423915147781372
0.533524453639984131 0.233729556202888489 -0.0282266866415739059
0.50000530481338501 0.000301180640235543251 0.318324744701385498
0.567524194717407227 0.248299747705459595 0.0715518072247505188
0.422712206840515137 0.312623053789138794 0.111144900321960449
0.246465593576431274 0.457290232181549072 0.283087641000747681
-0.0266816969960927963 -0.417666703462600708 0.337327390909194946
0.399122774600982666 -0.110262170433998108 0.365494221448898315
0.534952521324157715 0.130584925413131714 0.217363730072975159
-0.00632408168166875839 0.504392325878143311 0.30871620774269104
0.234616309404373169 -0.294794082641601562 0.317320495843887329
0.491977572441101074 -0.000740492891054600477 0.324033886194229126
-0.160220295190811157 -0.412346363067626953 0.366702526807785034
0.526559770107269287 0.105983003973960876 0.249388769268989563
0.290188401937484741 -0.276682347059249878 0.357902169227600098
0.507648825645446777 0.290940374135971069 0.0699218437075614929
0.192000895738601685 0.440713167190551758 0.352783471345901489
0.509264051914215088 0.0294993724673986435 0.311135441064834595
0.483454346656799316 0.034528389573097229 0.301650583744049072
0.442088425159454346 -0.0732666924595832825 0.355958819389343262
0.524912238121032715 0.107284054160118103 0.258318960666656494
0.551616251468658447 0.229539021849632263 0.0687193423509597778
0.525370121002197266 0.119558192789554596 0.219926580786705017
0.574338793754577637 0.223372533917427063 0.120073497295379639
0.348885804414749146 0.355281263589859009 0.187652707099914551
0.0286868046969175339 -0.372643828392028809 0.335218340158462524
0.0893293246626853943 -0.352707117795944214 0.322799175977706909
0.40927588939666748 -0.115844227373600006 0.364367365837097168
0.270884454250335693 -0.300395488739013672 0.338821113109588623
0.103550426661968231 0.501166284084320068 0.28857111930847168
0.570306003093719482 0.237176790833473206 0.102620929479598999
0.51548236608505249 0.111167974770069122 0.267508774995803833
0.222013890743255615 0.466561019420623779 0.281731635332107544
0.453776001930236816 -0.0306693408638238907 0.342986136674880981
0.56141054630279541 0.248651608824729919 0.0604436658322811127
-0.14139266312122345 -0.415728658437728882 0.371828049421310425
-0.270763427019119263 -0.435701042413711548 0.406029671430587769
0.0190058760344982147 0.512206971645355225 0.306151330471038818
0.541106462478637695 0.280384212732315063 0.0878792852163314819
0.481127679347991943 0.0298513378947973251 0.300077974796295166
0.201823040843009949 0.471958637237548828 0.278225153684616089
0.588805079460144043 0.234980747103691101 0.0816616714000701904
0.509579718112945557 0.0235709007829427719 0.293051600456237793
0.230832561850547791 0.446838885545730591 0.324713140726089478
0.273731917142868042 0.460519194602966309 0.254401445388793945
0.366730630397796631 -0.183730974793434143 0.325159072875976562
0.284974008798599243 0.438906580209732056 0.271130859851837158
0.544756948947906494 0.194310039281845093 0.125908926129341125
0.560618162155151367 0.214117065072059631 0.140720918774604797
0.40962710976600647 0.335801184177398682 0.147553473711013794
0.387776583433151245 -0.104700282216072083 0.342610329389572144
-0.185391545295715332 -0.413717120885848999 0.410102725028991699
0.57499384880065918 0.208796590566635132 0.111691020429134369
0.251927345991134644 0.454814434051513672 0.276310950517654419
0.421495676040649414 0.32501491904258728 0.12032240629196167
0.238775938749313354 -0.302008450031280518 0.314007461071014404
0.38558661937713623 -0.146776020526885986 0.344819784164428711
0.499812990427017212 0.114138536155223846 0.251097172498703003
0.139369562268257141 0.444406211376190186 0.356671333312988281
0.356868147850036621 -0.147069618105888367 0.365109533071517944
0.332556933164596558 0.386126458644866943 0.209882199764251709
0.367533504962921143 0.389835864305496216 0.201213791966438293
0.502754390239715576 0.234889909625053406 0.000615298398770391941
0.091465875506401062 -0.357321113348007202 0.341898471117019653
-0.643111765384674072 -0.301208704710006714 0.370884537696838379
0.0464295484125614166 -0.391497343778610229 0.337755352258682251
0.410379260778427124 -0.116624288260936737 0.351945400238037109
0.571946680545806885 0.194932088255882263 0.123017974197864532
-0.146213382482528687 -0.424448788166046143 0.384891510009765625
0.313525021076202393 0.434187233448028564 0.244126841425895691
-0.0710791051387786865 -0.42336466908454895 0.323815435171127319
0.562028467655181885 0.242253407835960388 0.0776510387659072876
0.38420403003692627 0.349194318056106567 0.17682039737701416
0.525416910648345947 0.144330680370330811 0.229899808764457703
0.59013211727142334 0.228359699249267578 0.0839636698365211487
0.051908489316701889 0.494553178548812866 0.298979908227920532
0.361055314540863037 -0.154451757669448853 0.365896254777908325
0.400826871395111084 0.304808557033538818 0.119129762053489685
0.29514959454536438 -0.238732069730758667 0.353791296482086182
-0.0209338981658220291 -0.407330125570297241 0.326547086238861084
0.0868139788508415222 0.501400232315063477 0.281582146883010864
0.105570502579212189 0.485777735710144043 0.284104287624359131
0.314315736293792725 -0.215079888701438904 0.367162704467773438
0.418248653411865234 0.298411935567855835 0.126019150018692017
0.144376769661903381 -0.351260930299758911 0.335368186235427856
-0.321310430765151978 -0.440928786993026733 0.398677408695220947
0.37449270486831665 0.374999076128005981 0.189593479037284851
-0.136347144842147827 -0.422764837741851807 0.342123091220855713
0.504140317440032959 0.135509610176086426 0.2441854327917099
0.528513669967651367 0.141373082995414734 0.232380956411361694
0.543906986713409424 0.268315017223358154 0.0442741475999355316
-0.23839297890663147 -0.428962588310241699 0.411515086889266968
0.519649267196655273 0.262198477983474731 -0.0204536989331245422
0.361194819211959839 -0.165643557906150818 0.383779853582382202
-0.00313192815519869328 0.496977418661117554 0.30627143383026123
0.35848429799079895 -0.190436884760856628 0.375018984079360962
-0.087201923131942749 -0.423344075679779053 0.324429601430892944
0.259076982736587524 0.452383458614349365 0.26747971773147583
0.108033329248428345 0.445664495229721069 0.36582610011100769
-0.417873620986938477 -0.434767007827758789 0.422355353832244873
0.523470878601074219 0.260088503360748291 -0.00125925790052860975
0.540689647197723389 0.234463632106781006 0.0102733438834547997
-0.196731969714164734 -0.428006440401077271 0.417828172445297241
0.371999502182006836 -0.163883686065673828 0.370585471391677856
0.357472211122512817 -0.16763131320476532 0.394463509321212769
0.455961138010025024 -0.0616067126393318176 0.347835659980773926
0.293572962284088135 0.422740727663040161 0.254571050405502319
-0.158466920256614685 -0.422548234462738037 0.356760203838348389
0.449437439441680908 0.308385968208312988 0.122054249048233032
0.240348905324935913 -0.293015122413635254 0.339676201343536377
0.224130064249038696 0.443421065807342529 0.335447818040847778
0.448350071907043457 -0.0281533394008874893 0.340884655714035034
0.402657598257064819 0.306285619735717773 0.119071707129478455
0.499872326850891113 0.256922870874404907 -0.0420429371297359467
0.242106631398200989 -0.310107052326202393 0.313510924577713013
0.0987815111875534058 0.448134422302246094 0.363672018051147461
0.328144729137420654 0.423328220844268799 0.240097969770431519
0.522070407867431641 0.0692351534962654114 0.270585417747497559
0.545580625534057617 0.2445964515209198 -0.0234961453825235367
0.519200503826141357 0.243212252855300903 0.00467963982373476028
0.505759298801422119 0.255315870046615601 -0.0280752219259738922
0.579907357692718506 0.209997564554214478 0.097499847412109375
0.544576942920684814 0.260683923959732056 0.0383765473961830139
0.132020547986030579 0.473858088254928589 0.280981987714767456
-0.411384344100952148 -0.425686657428741455 0.418687134981155396
0.546267211437225342 0.230609595775604248 -0.0167372487485408783
0.257728427648544312 0.454746842384338379 0.300629675388336182
-0.22670920193195343 -0.434353083372116089 0.417655587196350098
0.355365008115768433 0.404575258493423462 0.200940683484077454
0.570916593074798584 0.264408469200134277 0.0513207726180553436
0.502535879611968994 0.254111915826797485 -0.0521956346929073334
0.535804986953735352 0.154213041067123413 0.194983646273612976
0.364844053983688354 0.326759636402130127 0.152255654335021973
0.447442829608917236 0.292905181646347046 0.125291898846626282
-0.305703610181808472 -0.438171952962875366 0.387950420379638672
0.579252719879150391 0.255868107080459595 0.0248254407197237015
0.501641809940338135 0.0865696892142295837 0.249775782227516174
-0.451311111450195312 -0.425984829664230347 0.423043251037597656
0.487479716539382935 0.0380811840295791626 0.316768616437911987
0.518646299839019775 0.050288710743188858 0.291500359773635864
0.501592636108398438 0.114712916314601898 0.221279501914978027
0.246767029166221619 0.452201604843139648 0.271365165710449219
0.384007692337036133 0.324358999729156494 0.133885815739631653
0.455873429775238037 -0.042387690395116806 0.319218665361404419
0.162226751446723938 0.48890608549118042 0.296475976705551147
0.151670634746551514 -0.35491064190864563 0.33362424373626709
0.600315988063812256 0.233633264899253845 0.0666514113545417786
0.528014540672302246 0.0901564657688140869 0.274837017059326172
0.170430436730384827 0.446151375770568848 0.352684587240219116
0.374868422746658325 0.376835018396377563 0.191990748047828674
0.509300291538238525 0.0244224928319454193 0.293430179357528687
0.420026779174804688 -0.0885394290089607239 0.331440150737762451
0.390244036912918091 0.311266005039215088 0.13126884400844574
0.489995419979095459 -0.00769629655405879021 0.328840494155883789
0.233697593212127686 -0.324442863464355469 0.325074285268783569
-0.0276012197136878967 -0.41556820273399353 0.339350044727325439
0.289792090654373169 0.441713958978652954 0.239683941006660461
0.500942230224609375 0.0366207025945186615 0.286498814821243286
0.536821365356445312 0.187456220388412476 0.130499124526977539
0.366891741752624512 -0.174949407577514648 0.336871892213821411
-0.446563214063644409 -0.431147754192352295 0.430922478437423706
0.554372906684875488 0.250422537326812744 0.0534912608563899994
0.393572241067886353 0.317887663841247559 0.127996191382408142
0.366857081651687622 -0.129406899213790894 0.376440942287445068
0.217640772461891174 0.443436592817306519 0.339432805776596069
0.522123575210571289 0.240611955523490906 -0.0371160991489887238
-0.203832730650901794 -0.41387590765953064 0.411885678768157959
0.143126025795936584 0.442192107439041138 0.371664464473724365
-0.653178691864013672 -0.313640683889389038 0.378221243619918823
0.348296314477920532 -0.176823273301124573 0.367156237363815308
0.292630165815353394 -0.254995137453079224 0.362534463405609131
0.279371470212936401 -0.284113287925720215 0.3288918137550354
0.580238223075866699 0.21491539478302002 0.119071230292320251
0.297731310129165649 0.451804965734481812 0.254359930753707886
0.105544358491897583 0.484309017658233643 0.278819411993026733
0.191318526864051819 0.470289081335067749 0.278574705123901367
-0.124015510082244873 -0.426091760396957397 0.355156242847442627
0.326169043779373169 -0.236123159527778625 0.356852352619171143
0.571604013442993164 0.255285143852233887 0.0143858790397644043
0.06576518714427948 0.498642325401306152 0.286174654960632324
0.330546528100967407 -0.242796957492828369 0.370518475770950317
0.116012409329414368 -0.355312615633010864 0.317997068166732788
0.526503980159759521 0.0892824605107307434 0.261898905038833618
0.580262959003448486 0.264235079288482666 0.0215107593685388565
0.321346879005432129 -0.212462842464447021 0.319001376628875732
-0.295860558748245239 -0.429751962423324585 0.397317826747894287
-0.636746048927307129 -0.31314358115196228 0.368177264928817749
0.345635920763015747 -0.165512561798095703 0.36915925145149231
0.357662767171859741 -0.182480961084365845 0.324027061462402344
0.271170079708099365 0.450536549091339111 0.247050747275352478
0.530607461929321289 0.145218640565872192 0.228604629635810852
0.402314096689224243 0.313528597354888916 0.113691888749599457
0.433713912963867188 0.290062516927719116 0.126743853092193604
0.345403194427490234 -0.173976495862007141 0.367990344762802124
0.447439610958099365 -0.0759338885545730591 0.347782701253890991
-0.125682339072227478 -0.419190496206283569 0.353049904108047485
0.520372986793518066 0.235836997628211975 -0.0310491584241390228
0.329015642404556274 0.426467001438140869 0.228143930435180664
0.562764108180999756 0.245173335075378418 0.0804871544241905212
0.500307440757751465 0.0102225039154291153 0.309010982513427734
0.378843635320663452 0.32884448766708374 0.166350856423377991
0.47671237587928772 0.00600179936736822128 0.305739790201187134
0.503769576549530029 0.136405095458030701 0.237569630146026611
0.524264812469482422 0.287783950567245483 0.0687650516629219055
0.516308784484863281 0.239387631416320801 -0.0327523276209831238
0.292698591947555542 0.421570539474487305 0.248155057430267334
-0.266430974006652832 -0.427023053169250488 0.396220982074737549
0.378784358501434326 -0.131238847970962524 0.37356269359588623
0.581648468971252441 0.255889773368835449 0.0205597560852766037
0.154627770185470581 -0.341379463672637939 0.336042881011962891
0.547995626926422119 0.16608014702796936 0.167437613010406494
0.535859346389770508 0.141388401389122009 0.207636177539825439
0.0907445326447486877 0.486927419900894165 0.282273024320602417
0.40075346827507019 -0.0779466331005096436 0.336502820253372192
0.290199041366577148 -0.267592906951904297 0.363355875015258789
-0.192392691969871521 -0.418677538633346558 0.418165206909179688
0.397766739130020142 -0.0811324417591094971 0.354534953832626343
0.307475805282592773 -0.261595994234085083 0.346473008394241333
0.438889741897583008 -0.0867510885000228882 0.336167752742767334
0.12149280309677124 0.451095789670944214 0.361982345581054688
0.278256714344024658 -0.284948378801345825 0.350776523351669312
0.543096601963043213 0.270448952913284302 0.0508560836315155029
0.572152972221374512 0.277638643980026245 0.0640379711985588074
0.0539530068635940552 0.507454216480255127 0.301491260528564453
0.375711590051651001 0.34174540638923645 0.142333045601844788
0.26100689172744751 -0.277744024991989136 0.351835161447525024
0.228427484631538391 -0.296180993318557739 0.334484964609146118
0.498457968235015869 0.0677794590592384338 0.303055316209793091
0.286351799964904785 -0.282180428504943848 0.353001326322555542
0.517440617084503174 0.249191254377365112 -0.0481934472918510437
-0.257505834102630615 -0.439931958913803101 0.409231454133987427
0.488715022802352905 -0.0145070683211088181 0.312715530395507812
0.525887250900268555 0.19482739269733429 0.168990045785903931
0.340525627136230469 0.417190402746200562 0.210590481758117676
0.185694172978401184 -0.340377688407897949 0.321513444185256958
-0.640768349170684814 -0.354666709899902344 0.372832953929901123
0.311641037464141846 -0.204841166734695435 0.379654109477996826
0.555525362491607666 0.297665059566497803 0.0766650289297103882
0.287635922431945801 0.469534754753112793 0.268656522035598755
-0.0727996975183486938 -0.42490348219871521 0.325542241334915161
0.388654053211212158 0.31712302565574646 0.161781609058380127
-0.240324065089225769 -0.435892164707183838 0.414602279663085938
0.0643046125769615173 -0.382054388523101807 0.324513077735900879
0.545448660850524902 0.202525243163108826 0.118111163377761841
0.520658254623413086 0.264410048723220825 -0.00659159990027546883
0.488538295030593872 0.052174888551235199 0.29620206356048584
0.335933476686477661 0.38486906886100769 0.216022536158561707
0.520669758319854736 0.285312414169311523 0.101693712174892426
0.12223014235496521 -0.354068845510482788 0.314870983362197876
-0.601536691188812256 -0.39962160587310791 0.394487261772155762
0.372451156377792358 0.323306024074554443 0.148870065808296204
0.389304965734481812 -0.122046098113059998 0.34209105372428894
0.22229805588722229 0.470872223377227783 0.270557254552841187
-0.623810648918151855 -0.383610934019088745 0.379029154777526855
0.43479505181312561 0.301495939493179321 0.13738366961479187
-0.314447075128555298 -0.441208630800247192 0.390687227249145508
0.166018381714820862 0.439789265394210815 0.36114424467086792
0.31123390793800354 0.406146585941314697 0.21026967465877533
0.50704270601272583 0.0642121508717536926 0.304693132638931274
0.371447741985321045 0.384707123041152954 0.195600613951683044
0.51856231689453125 0.0432459451258182526 0.295822590589523315
0.358133226633071899 -0.196176305413246155 0.378826498985290527
0.281737476587295532 -0.27461579442024231 0.32621803879737854
0.300281941890716553 0.414282500743865967 0.23867933452129364
0.449438303709030151 -0.0704970657825469971 0.330677717924118042
0.508530795574188232 0.166627153754234314 0.19855111837387085
0.509405791759490967 0.300302237272262573 0.098176807165145874
0.527595818042755127 0.302010506391525269 0.0915427133440971375
-0.632719516754150391 -0.306468874216079712 0.372782140970230103
0.149412646889686584 -0.346384704113006592 0.335965156555175781
0.237084150314331055 -0.289915263652801514 0.331218361854553223
0.536574661731719971 0.155472010374069214 0.204711392521858215
0.505669772624969482 0.289290517568588257 0.10329514741897583
0.302818268537521362 -0.252219200134277344 0.343697637319564819
0.509985864162445068 0.25389176607131958 -0.0547434762120246887
0.464334011077880859 0.00938482582569122314 0.32011491060256958
0.527088642120361328 0.281382620334625244 0.0656519755721092224
0.491970926523208618 -0.0168476738035678864 0.332646340131759644
-0.0702631697058677673 -0.410207748413085938 0.329575449228286743
0.314675956964492798 -0.257200777530670166 0.36274448037147522
0.53211510181427002 0.142820224165916443 0.220408886671066284
0.544985353946685791 0.224774792790412903 0.11264907568693161
0.32640153169631958 -0.202753067016601562 0.321358442306518555
0.425134539604187012 0.324255704879760742 0.137764438986778259
0.554326057434082031 0.276691675186157227 0.0783537104725837708
0.341148883104324341 0.386098414659500122 0.182396024465560913
0.315991044044494629 -0.211812868714332581 0.314437955617904663
0.405131518840789795 -0.0957414582371711731 0.36349901556968689
0.512164115905761719 0.0324170999228954315 0.288585543632507324
0.526023387908935547 0.187190115451812744 0.180152758955955505
0.337820470333099365 0.368726074695587158 0.183617576956748962
0.494314044713973999 0.0472581125795841217 0.29946666955947876
-0.182651624083518982 -0.427718639373779297 0.409514009952545166
0.501165390014648438 0.142871364951133728 0.222628399729728699
0.251082867383956909 0.459002256393432617 0.320007860660552979
-0.419498473405838013 -0.438332229852676392 0.421556264162063599
0.358383446931838989 -0.193425536155700684 0.376696795225143433
0.410691291093826294 0.335105478763580322 0.145066067576408386
0.503593802452087402 0.0689406171441078186 0.269031703472137451
0.534153878688812256 0.247366875410079956 -0.0359731577336788177
0.221953496336936951 0.469441086053848267 0.279883831739425659
0.180940538644790649 0.471011817455291748 0.296330451965332031
0.196639582514762878 0.469625025987625122 0.271778643131256104
-0.415523350238800049 -0.43225550651550293 0.416459798812866211
0.538389146327972412 0.261183440685272217 0.0122067360207438469
0.293806850910186768 0.461737722158432007 0.269648194313049316
0.525779128074645996 0.241405263543128967 -0.0467279292643070221
0.276094108819961548 -0.26079946756362915 0.344281286001205444
0.27406609058380127 0.446532547473907471 0.25097772479057312
0.447407573461532593 -0.0692008286714553833 0.354588299989700317
0.584505140781402588 0.2220354825258255 0.0681195482611656189
0.542481422424316406 0.203282669186592102 0.160068780183792114
0.561657309532165527 0.185338467359542847 0.147925227880477905
0.41252601146697998 0.309123337268829346 0.14282795786857605
0.42435985803604126 -0.0981866419315338135 0.354447126388549805
0.571370482444763184 0.289980173110961914 0.0524696856737136841
0.5756644606590271 0.220476031303405762 0.123371921479701996
0.374512642621994019 -0.162536606192588806 0.375371932983398438
-0.375055521726608276 -0.440887123346328735 0.41124117374420166
0.520674586296081543 0.100004099309444427 0.275019913911819458
0.329294681549072266 -0.184725984930992126 0.374611735343933105
0.558781623840332031 0.23910367488861084 0.0664659067988395691
0.446291327476501465 -0.036038421094417572 0.326712489128112793
0.282894253730773926 0.444367706775665283 0.274188578128814697
0.536294877529144287 0.144631966948509216 0.223123088479042053
0.412936955690383911 -0.11886124312877655 0.358991026878356934
0.527276694774627686 0.103628076612949371 0.23567613959312439
0.520510017871856689 0.0881302952766418457 0.248380079865455627
0.560889005661010742 0.297436058521270752 0.0589798986911773682
0.380725324153900146 0.315529942512512207 0.1391497403383255
0.518460214138031006 0.0650907605886459351 0.292940706014633179
0.500113904476165771 0.0921084135770797729 0.26385912299156189
0.217874273657798767 0.446692109107971191 0.333520203828811646
0.12829338014125824 0.477366983890533447 0.281836569309234619
0.375233918428421021 0.382531702518463135 0.189325630664825439
0.519948899745941162 0.182177424430847168 0.185999795794487
0.499547719955444336 0.070829734206199646 0.26427045464515686
0.216150611639022827 0.440309315919876099 0.336277544498443604
0.0359879396855831146 0.495840936899185181 0.30406421422958374
0.240741774439811707 0.464650511741638184 0.292596161365509033
0.169711440801620483 -0.324309825897216797 0.325707226991653442
0.499849885702133179 0.0894354358315467834 0.275374323129653931
0.507928669452667236 0.174216717481613159 0.163510367274284363
-0.131478145718574524 -0.425780445337295532 0.337217599153518677
0.0136420484632253647 0.510276436805725098 0.301952362060546875
0.376492977142333984 -0.127784579992294312 0.348522424697875977
0.500031530857086182 0.0878541171550750732 0.270298570394515991
0.196453943848609924 -0.335938632488250732 0.324390828609466553
0.339242398738861084 0.371125549077987671 0.191119581460952759
0.546478211879730225 0.246804594993591309 -0.0202232711017131805
0.561282455921173096 0.213607385754585266 0.141419962048530579
0.145316228270530701 0.4796944260597229 0.295000255107879639
0.446086734533309937 0.289423078298568726 0.121183864772319794
0.286236792802810669 -0.287266671657562256 0.343499839305877686
0.472361087799072266 0.0116704842075705528 0.307856082916259766
0.438488125801086426 -0.0619424805045127869 0.328619778156280518
0.229098707437515259 -0.324901223182678223 0.323731571435928345
0.364504963159561157 -0.161943167448043823 0.330578595399856567
0.26324048638343811 0.452236473560333252 0.256189554929733276
0.424760431051254272 0.29525187611579895 0.107530839741230011
0.568133652210235596 0.262798726558685303 0.0531377531588077545
0.553825020790100098 0.29605451226234436 0.0804744511842727661
0.428702622652053833 -0.0765935406088829041 0.356411844491958618
0.214226916432380676 -0.310542851686477661 0.311506390571594238
0.328905403614044189 0.380937725305557251 0.200496196746826172
0.156039118766784668 0.472314894199371338 0.294076979160308838
0.355243146419525146 0.399239659309387207 0.21544821560382843
-0.457336843013763428 -0.422928214073181152 0.429378151893615723
