ply
format ascii 1.0
element vertex 752
comment vertices
property float x
property float y
property float z
end_header
0.732582449913024902 0.0868394747376441956 0.151613444089889526
0.794951379299163818 0.0942822620272636414 0.161391586065292358
0.358597427606582642 0.259008288383483887 0.426610618829727173
0.142006754875183105 0.121760368347167969 0.569837868213653564
0.349482417106628418 0.266258895397186279 0.415797799825668335
0.62376248836517334 0.172466084361076355 0.20107617974281311
0.385966628789901733 0.264731824398040771 0.415465414524078369
0.813965439796447754 0.0231644865125417709 0.176827475428581238
0.74722135066986084 -0.0394483767449855804 0.247416272759437561
0.660339117050170898 -0.263963013887405396 0.346290141344070435
0.488914847373962402 -0.398685753345489502 0.392918556928634644
0.157508775591850281 -0.536770462989807129 0.375335127115249634
0.776461184024810791 0.0922098606824874878 0.169278040528297424
0.742915868759155273 -0.0611508637666702271 0.276531398296356201
0.500817954540252686 -0.405997961759567261 0.390533119440078735
0.787809491157531738 0.0887424424290657043 0.051702447235584259
0.472536653280258179 0.282788723707199097 0.303063362836837769
0.359388381242752075 -0.464376121759414673 0.397554904222488403
0.376762926578521729 0.314665138721466064 0.333008855581283569
0.781791031360626221 0.0757330358028411865 0.168684691190719604
0.813381552696228027 0.0733329728245735168 0.143529519438743591
0.0155105646699666977 -0.575213491916656494 0.367206215858459473
0.657635092735290527 -0.230932578444480896 0.345284759998321533
0.651742935180664062 0.168380334973335266 0.192334085702896118
0.62437903881072998 -0.271423637866973877 0.353936076164245605
0.682216644287109375 -0.190470010042190552 0.318428218364715576
0.609622597694396973 0.184257999062538147 0.213022395968437195
0.0773279815912246704 0.0439448058605194092 0.604027271270751953
0.387923091650009155 0.278590917587280273 0.409646272659301758
0.675116539001464844 -0.229914367198944092 0.319815367460250854
0.811041295528411865 0.0682818666100502014 0.0620281882584095001
0.116299673914909363 -0.554854214191436768 0.382672131061553955
0.479766428470611572 -0.401028573513031006 0.385403752326965332
0.814507544040679932 0.0131024457514286041 0.202690839767456055
-0.152210161089897156 -0.577506303787231445 0.364240288734436035
0.542398810386657715 -0.381619721651077271 0.382813423871994019
-0.17328248918056488 -0.575851976871490479 0.366968095302581787
0.776230335235595703 0.0810644924640655518 0.0731364935636520386
0.398458957672119141 -0.451348662376403809 0.398099333047866821
0.193723395466804504 0.154001057147979736 0.531578898429870605
0.677897036075592041 -0.190708190202713013 0.326681584119796753
0.336032778024673462 0.265762418508529663 0.438697844743728638
0.268417924642562866 0.20252932608127594 0.502482354640960693
0.66184002161026001 0.164649412035942078 0.211308717727661133
0.776995182037353516 0.0863476842641830444 0.100764639675617218
0.578705251216888428 -0.31808096170425415 0.414606243371963501
0.722455799579620361 -0.0947329476475715637 0.286407023668289185
0.10572466254234314 0.0813006758689880371 0.590543508529663086
0.471559613943099976 -0.422307819128036499 0.399462103843688965
0.686325669288635254 -0.209854036569595337 0.342077553272247314
0.257289588451385498 -0.503065526485443115 0.413206487894058228
0.748891770839691162 -0.117500811815261841 0.29161536693572998
0.738078474998474121 0.0800638869404792786 0.176749616861343384
0.651464343070983887 -0.268309354782104492 0.361790239810943604
0.284402340650558472 0.218947112560272217 0.495898306369781494
0.18616136908531189 0.168562382459640503 0.524228453636169434
0.595121324062347412 0.223110020160675049 0.243607938289642334
0.635725796222686768 0.149651452898979187 0.193479433655738831
0.642159521579742432 0.195713669061660767 0.223060756921768188
0.482224464416503906 0.276346683502197266 0.307993710041046143
0.439605951309204102 -0.444505929946899414 0.395289212465286255
0.148585990071296692 0.110448844730854034 0.56631922721862793
0.17166350781917572 -0.531177759170532227 0.378437519073486328
0.688229739665985107 0.112599954009056091 0.195335417985916138
0.658351123332977295 -0.0365829579532146454 0.215828984975814819
0.549298584461212158 0.253910064697265625 0.302414834499359131
0.330921828746795654 0.264164090156555176 0.448593050241470337
0.393669992685317993 -0.460746526718139648 0.402485847473144531
0.612935543060302734 -0.322953879833221436 0.373951613903045654
0.565510809421539307 0.249011337757110596 0.29185718297958374
0.774270772933959961 0.0315560810267925262 0.19475238025188446
0.47995758056640625 -0.401371389627456665 0.392304360866546631
0.65593189001083374 0.163217231631278992 0.208359822630882263
0.743457973003387451 0.00818573683500289917 0.316285997629165649
0.765083551406860352 0.00265975086949765682 0.228725194931030273
0.080209784209728241 0.0466647259891033173 0.588379859924316406
0.565801680088043213 -0.320302963256835938 0.440225899219512939
0.735267817974090576 0.00973278656601905823 0.290620416402816772
0.339913100004196167 -0.478030562400817871 0.395387887954711914
0.76319420337677002 0.0130888503044843674 0.212055891752243042
0.526734352111816406 0.242713585495948792 0.324004173278808594
0.796977102756500244 0.0396402589976787567 0.193743258714675903
0.306586593389511108 0.232228904962539673 0.474293500185012817
0.652894437313079834 -0.277953147888183594 0.349162399768829346
0.000447592610726132989 0.0117529751732945442 0.614172279834747314
0.770312666893005371 0.00614842027425765991 0.223261401057243347
0.695403099060058594 -0.193448007106781006 0.3121337890625
0.671925365924835205 -0.202858313918113708 0.327303975820541382
0.73822176456451416 0.00367025239393115044 0.307486861944198608
0.144808590412139893 -0.536382913589477539 0.377192229032516479
0.55887526273727417 -0.346275597810745239 0.369658410549163818
0.464669406414031982 -0.417469888925552368 0.39900672435760498
0.607763350009918213 0.190339803695678711 0.242523059248924255
0.674817800521850586 0.11432841420173645 0.184304893016815186
0.191781803965568542 -0.537171363830566406 0.367266029119491577
0.657853484153747559 -0.215121746063232422 0.315146327018737793
0.509921491146087646 0.256725907325744629 0.301469773054122925
0.00648811273276805878 0.0096728689968585968 0.605025887489318848
0.621611237525939941 -0.278053939342498779 0.350977271795272827
-0.162340149283409119 -0.577579975128173828 0.368904262781143188
0.688315629959106445 -0.16443362832069397 0.323184400796890259
0.798154294490814209 0.0868928432464599609 0.0601745955646038055
0.269598186016082764 -0.515714883804321289 0.402300179004669189
0.00718027772381901741 -0.57161945104598999 0.356649249792098999
0.751580357551574707 0.00302063790149986744 0.330132931470870972
0.597964048385620117 -0.332278430461883545 0.364435255527496338
0.571033179759979248 0.21989808976650238 0.259020090103149414
0.62075340747833252 -0.316484808921813965 0.372881293296813965
0.652909636497497559 0.182063311338424683 0.20126304030418396
0.74851912260055542 0.0752143934369087219 0.173746079206466675
0.739803433418273926 -0.0559426657855510712 0.25374138355255127
0.78678971529006958 0.027159838005900383 0.157249346375465393
0.698139190673828125 -0.205906137824058533 0.319304108619689941
0.745184898376464844 0.100666999816894531 0.182195559144020081
0.539018094539642334 0.238070711493492126 0.299806475639343262
0.751345574855804443 -0.0449879541993141174 0.231288164854049683
0.768796801567077637 0.0933635756373405457 0.144936606287956238
0.329459458589553833 0.321394592523574829 0.3400687575340271
0.681305468082427979 0.142621502280235291 0.19017241895198822
0.191420450806617737 0.156609416007995605 0.525041282176971436
0.562511026859283447 0.237288534641265869 0.305916786193847656
0.362319648265838623 -0.465367734432220459 0.403408735990524292
0.648680269718170166 -0.27785685658454895 0.346784234046936035
0.778910458087921143 0.00320569542236626148 0.189026936888694763
0.626254618167877197 -0.311202257871627808 0.370224118232727051
0.782568812370300293 0.0925978124141693115 0.155495941638946533
0.75832134485244751 -0.0469786450266838074 0.227426663041114807
0.294930398464202881 -0.490138083696365356 0.409747093915939331
0.527371525764465332 0.249703690409660339 0.311497271060943604
0.731036245822906494 0.00812681578099727631 0.281833887100219727
0.0137306218966841698 0.0275562461465597153 0.608453154563903809
0.541614830493927002 0.258676737546920776 0.322011023759841919
0.780204653739929199 0.0710102617740631104 0.0645714551210403442
0.768761217594146729 0.0317635014653205872 0.170563369989395142
0.751190543174743652 -0.112773783504962921 0.295673638582229614
0.583362102508544922 -0.325597196817398071 0.369682401418685913
0.493968576192855835 0.273053079843521118 0.358163267374038696
0.474477171897888184 0.277340501546859741 0.303277164697647095
0.623600602149963379 -0.295553505420684814 0.353754431009292603
0.812083601951599121 0.024398069828748703 0.20191173255443573
-0.00615818426012992859 -0.0014900983078405261 0.603390932083129883
0.705091476440429688 0.115622535347938538 0.192045480012893677
0.769417226314544678 0.0182811170816421509 0.210886523127555847
0.355749160051345825 -0.465336114168167114 0.399176955223083496
0.820533692836761475 0.0804013907909393311 0.0805506110191345215
0.776863992214202881 0.0500527545809745789 0.152991145849227905
0.74402385950088501 0.10918339341878891 0.167699575424194336
0.638128697872161865 0.147502407431602478 0.196445614099502563
0.283812373876571655 0.230414628982543945 0.478326529264450073
0.54977118968963623 0.251954525709152222 0.316537827253341675
0.777572929859161377 0.0406150631606578827 0.185649469494819641
0.526228010654449463 -0.376033186912536621 0.39014822244644165
0.480392098426818848 -0.423289567232131958 0.393036931753158569
0.75091928243637085 -0.104966878890991211 0.301803439855575562
0.4633675217628479 0.284420937299728394 0.3057975172996521
0.588168203830718994 -0.340314656496047974 0.383516520261764526
0.824158728122711182 0.0442586690187454224 0.152813747525215149
-0.169488862156867981 -0.573594987392425537 0.370365679264068604
0.62858349084854126 0.184977173805236816 0.2360362708568573
0.688887357711791992 -0.234418362379074097 0.335161089897155762
0.779545724391937256 0.0310857202857732773 0.156652152538299561
0.109450124204158783 0.104592673480510712 0.584878683090209961
0.706456482410430908 -0.193116471171379089 0.324205219745635986
0.799223959445953369 -0.00245447969064116478 0.217797935009002686
0.410984069108963013 0.2599354088306427 0.403373897075653076
0.284026741981506348 0.237949803471565247 0.478805333375930786
0.749041616916656494 0.00398206571117043495 0.274346768856048584
0.618306159973144531 -0.305241823196411133 0.356321722269058228
0.784313440322875977 0.0748261064291000366 0.0554390288889408112
0.74002605676651001 -0.0472118891775608063 0.248405620455741882
0.607338905334472656 0.213860929012298584 0.266241997480392456
0.478967577219009399 -0.409595310688018799 0.379741460084915161
-0.316397786140441895 -0.561128675937652588 0.375547438859939575
0.758994460105895996 -0.0073696942999958992 0.229093894362449646
0.390453696250915527 0.267669439315795898 0.424160033464431763
0.545277297496795654 0.249063104391098022 0.322592645883560181
0.441987574100494385 0.276443511247634888 0.388296008110046387
0.501011252403259277 -0.388894945383071899 0.387358129024505615
0.831910669803619385 0.0707341879606246948 0.126095324754714966
0.32983696460723877 -0.474481642246246338 0.397045761346817017
0.809148848056793213 0.0431120023131370544 0.139549002051353455
0.571187794208526611 0.224667370319366455 0.290814250707626343
-0.0629793107509613037 -0.580139338970184326 0.36746901273727417
0.60076904296875 0.189387530088424683 0.227098852396011353
0.475242644548416138 -0.427579343318939209 0.381477236747741699
0.0379263460636138916 -0.571868479251861572 0.363159835338592529
0.822297334671020508 0.0684434548020362854 0.102194011211395264
0.208078041672706604 -0.537067651748657227 0.385488897562026978
0.200201958417892456 0.175340414047241211 0.510203659534454346
0.553072571754455566 0.244926929473876953 0.281646490097045898
0.766117215156555176 -0.0868606492877006531 0.283422738313674927
0.469897598028182983 -0.432442963123321533 0.38914605975151062
0.588519811630249023 0.229363054037094116 0.283288419246673584
0.640093803405761719 0.148180782794952393 0.201844468712806702
0.819149971008300781 0.082020781934261322 0.122849829494953156
0.265388369560241699 0.209722235798835754 0.485114812850952148
-0.0112623367458581924 -0.00322249904274940491 0.613256216049194336
0.434947341680526733 -0.433265805244445801 0.379711955785751343
0.096803814172744751 0.0866868868470191956 0.586313366889953613
0.776137650012969971 0.0722540915012359619 0.108749642968177795
0.809845387935638428 0.0204256940633058548 0.17707572877407074
0.652110099792480469 0.192737594246864319 0.234308972954750061
0.213381305336952209 -0.531298995018005371 0.380216240882873535
0.617312729358673096 -0.305036991834640503 0.37984052300453186
0.69676893949508667 -0.202029913663864136 0.339979052543640137
0.79311448335647583 0.0522664934396743774 0.120482191443443298
0.737598121166229248 -0.100591063499450684 0.270362645387649536
0.695348262786865234 0.128125220537185669 0.172420039772987366
0.74015963077545166 -0.12771250307559967 0.309149801731109619
0.784011900424957275 0.0787589922547340393 0.0547586828470230103
0.65392613410949707 0.192664861679077148 0.23400452733039856
0.698438763618469238 0.129613816738128662 0.172608539462089539
0.621496319770812988 -0.293136656284332275 0.374520599842071533
0.825794219970703125 0.0718923360109329224 0.125351324677467346
0.48745688796043396 0.271147400140762329 0.368336528539657593
0.800350785255432129 0.0551936067640781403 0.17314612865447998
0.510321497917175293 -0.383393347263336182 0.384593069553375244
0.667352676391601562 -0.237304806709289551 0.349082678556442261
0.223312050104141235 0.180149972438812256 0.519629478454589844
0.785825490951538086 0.0919511616230010986 0.162836059927940369
0.72917252779006958 -0.111604370176792145 0.305661499500274658
0.765935540199279785 0.0711642280220985413 0.169254377484321594
0.789981961250305176 0.0927426964044570923 0.143311947584152222
0.242179930210113525 -0.509810805320739746 0.414026200771331787
0.757053911685943604 -0.0426940172910690308 0.229311242699623108
0.776931643486022949 0.0369841866195201874 0.178720474243164062
0.681975185871124268 -0.243124157190322876 0.332203716039657593
0.769669532775878906 0.0944893136620521545 0.173490017652511597
0.56150352954864502 -0.365274727344512939 0.386350840330123901
0.317584484815597534 0.253210157155990601 0.446692019701004028
0.609121441841125488 -0.292385131120681763 0.358704954385757446
0.607405543327331543 0.193954765796661377 0.21853068470954895
0.734912991523742676 -0.0872280672192573547 0.261517137289047241
0.580891430377960205 -0.338771164417266846 0.36257597804069519
0.371668577194213867 0.275485694408416748 0.420693248510360718
0.733994185924530029 -0.0733271166682243347 0.284906983375549316
0.685493946075439453 -0.234846010804176331 0.331223040819168091
0.8117714524269104 0.0261528939008712769 0.201203972101211548
0.103474095463752747 0.0808234885334968567 0.600585281848907471
0.612404942512512207 0.204060465097427368 0.256126135587692261
0.224555358290672302 0.207572609186172485 0.508123278617858887
0.481592714786529541 -0.426998496055603027 0.390591055154800415
0.533567726612091064 0.251713663339614868 0.337147504091262817
0.715657591819763184 -0.178298532962799072 0.312816858291625977
0.572863519191741943 -0.324289590120315552 0.436611980199813843
0.506418347358703613 0.269614577293395996 0.348075538873672485
0.758019149303436279 -0.027741624042391777 0.249167561531066895
0.643875658512115479 -0.24139992892742157 0.338942259550094604
0.659288644790649414 -0.223748967051506042 0.332633286714553833
0.127843782305717468 0.104357562959194183 0.584399700164794922
0.590059101581573486 -0.316453874111175537 0.378193825483322144
0.769024908542633057 -0.0437006503343582153 0.250196278095245361
0.357062250375747681 0.266236454248428345 0.419449269771575928
0.417448490858078003 0.295728743076324463 0.320313870906829834
0.204508557915687561 0.159348800778388977 0.539147019386291504
0.579529404640197754 0.222357422113418579 0.255117654800415039
0.776765167713165283 -0.0284398365765810013 0.221277058124542236
0.773642063140869141 -0.0183135699480772018 0.240657627582550049
0.646063745021820068 -0.245043829083442688 0.352944076061248779
0.360723644495010376 -0.470458567142486572 0.389788031578063965
0.708053350448608398 -0.151668399572372437 0.324852466583251953
0.777759134769439697 -0.0163311269134283066 0.241651937365531921
0.748952805995941162 0.109468914568424225 0.163137063384056091
0.787011981010437012 0.0907259061932563782 0.090107649564743042
0.511885464191436768 0.259972661733627319 0.293853342533111572
0.58758312463760376 0.226221024990081787 0.28620561957359314
-0.136499479413032532 -0.589250683784484863 0.361795663833618164
0.729999840259552002 -0.0792016386985778809 0.285845279693603516
0.731375813484191895 -0.0706279724836349487 0.269966006278991699
0.792371511459350586 0.0452415831387042999 0.186632499098777771
0.62210005521774292 0.18818327784538269 0.239887535572052002
0.349513322114944458 -0.47987973690032959 0.407557547092437744
0.445380806922912598 0.27649158239364624 0.377302497625350952
0.699272036552429199 -0.181484386324882507 0.334092319011688232
0.218557342886924744 -0.531934201717376709 0.388032823801040649
0.77690434455871582 -0.0344545133411884308 0.241533815860748291
0.768202722072601318 0.0941710397601127625 0.178822457790374756
0.64402306079864502 0.193722918629646301 0.226858586072921753
0.00110696139745414257 0.00333838677033782005 0.609995841979980469
0.751094341278076172 0.0107727861031889915 0.304764270782470703
0.777612686157226562 0.0691517889499664307 0.094272121787071228
0.685093045234680176 -0.229083836078643799 0.325178980827331543
0.821512579917907715 0.0561460778117179871 0.123547174036502838
0.822539091110229492 0.0447149164974689484 0.17329128086566925
0.560891151428222656 0.238618537783622742 0.307429760694503784
0.616818130016326904 -0.0636150985956192017 0.206660449504852295
-0.303219586610794067 -0.565466821193695068 0.367321431636810303
0.271110743284225464 -0.517414093017578125 0.406270444393157959
0.267508536577224731 0.201268464326858521 0.497739911079406738
-0.0635963529348373413 -0.579616129398345947 0.368572384119033813
0.723143815994262695 -0.118734151124954224 0.283807694911956787
0.674654066562652588 -0.211327642202377319 0.322139739990234375
0.293722569942474365 0.236965551972389221 0.461622089147567749
0.589327573776245117 -0.313553750514984131 0.401519179344177246
0.536412239074707031 0.262112796306610107 0.326090455055236816
0.76064145565032959 -0.0854524374008178711 0.266844391822814941
0.0110472124069929123 0.014857245609164238 0.606796145439147949
0.0358978882431983948 0.0347393378615379333 0.608417153358459473
0.60157543420791626 0.186034679412841797 0.231604292988777161
0.720916271209716797 -0.00800746865570545197 0.355915963649749756
0.710558295249938965 -0.170214295387268066 0.329928010702133179
0.473707437515258789 -0.416625291109085083 0.378365755081176758
-0.0621658489108085632 -0.583420276641845703 0.369887441396713257
0.631366729736328125 -0.308194369077682495 0.361938029527664185
0.679074406623840332 -0.0294124875217676163 0.213206455111503601
0.819011867046356201 0.0788410454988479614 0.0899489894509315491
0.0604753494262695312 0.0440266728401184082 0.604195296764373779
0.252926498651504517 -0.506534218788146973 0.402503132820129395
0.445563554763793945 -0.426010847091674805 0.393538177013397217
0.721024394035339355 -0.165980309247970581 0.303704380989074707
-0.321565359830856323 -0.553042352199554443 0.373198956251144409
0.750087440013885498 0.00793207716196775436 0.263174057006835938
0.714593350887298584 -0.16311095654964447 0.324796229600906372
0.651118576526641846 0.141133695840835571 0.181965172290802002
0.697043716907501221 0.128297939896583557 0.180984258651733398
0.176482647657394409 0.13454844057559967 0.536492288112640381
0.709537863731384277 0.122547939419746399 0.181375667452812195
0.81983649730682373 0.0711921900510787964 0.114069625735282898
0.718071043491363525 -0.00321155739948153496 0.366756677627563477
0.384559452533721924 0.310317367315292358 0.321117788553237915
0.240140050649642944 -0.510860264301300049 0.408832192420959473
0.831498682498931885 0.0673173367977142334 0.130381986498832703
0.612614154815673828 -0.320812076330184937 0.376228600740432739
-0.21313852071762085 -0.58220207691192627 0.386105537414550781
-0.113285787403583527 -0.589085936546325684 0.364891320466995239
0.587706446647644043 -0.317340165376663208 0.404152274131774902
0.269964456558227539 -0.517253279685974121 0.402854770421981812
0.264677941799163818 -0.501370429992675781 0.406026393175125122
0.730192720890045166 0.0823014006018638611 0.179385840892791748
0.638586282730102539 0.177421405911445618 0.226680979132652283
0.357163935899734497 0.267981261014938354 0.420536428689956665
0.82127147912979126 0.0363160483539104462 0.181722819805145264
0.804568469524383545 0.019484473392367363 0.17079944908618927
0.749869644641876221 -0.112614937126636505 0.293255478143692017
0.740373432636260986 -0.0624862015247344971 0.276802211999893188
0.59675145149230957 0.19486178457736969 0.239272609353065491
0.712350070476531982 -0.129297316074371338 0.316459447145462036
0.619319736957550049 -0.314474374055862427 0.372573792934417725
0.201262563467025757 -0.539488494396209717 0.38139045238494873
0.777707517147064209 0.0138358660042285919 0.215979710221290588
0.782298088073730469 0.0778576582670211792 0.178366601467132568
0.560724139213562012 0.251404702663421631 0.293607890605926514
0.749422669410705566 0.0714430958032608032 0.169436454772949219
0.405013203620910645 0.269616574048995972 0.406299084424972534
0.27981269359588623 -0.511494815349578857 0.407691448926925659
0.146410003304481506 0.122022174298763275 0.568068146705627441
0.713440656661987305 -0.112455040216445923 0.288923680782318115
0.549264013767242432 -0.358163118362426758 0.387355446815490723
0.777047991752624512 0.00375582301057875156 0.18798123300075531
0.655057609081268311 -0.238684594631195068 0.345859557390213013
0.473184764385223389 -0.425763398408889771 0.399933218955993652
0.622143149375915527 -0.0565837547183036804 0.206042081117630005
0.342019438743591309 -0.488758087158203125 0.403700858354568481
0.760757207870483398 -0.0800286531448364258 0.2591075599193573
0.312200814485549927 0.236207768321037292 0.478467613458633423
0.613375842571258545 -0.300063788890838623 0.357372134923934937
0.66022568941116333 -0.222665950655937195 0.316886186599731445
0.0474831797182559967 0.0424684658646583557 0.606378793716430664
0.440848708152770996 -0.432862013578414917 0.394096791744232178
0.831268370151519775 0.044936053454875946 0.162500143051147461
0.607920527458190918 0.177965313196182251 0.222951740026473999
0.71783679723739624 0.0884842053055763245 0.169661223888397217
0.318603485822677612 0.2419910728931427 0.456872045993804932
0.817028462886810303 0.0572425685822963715 0.117177784442901611
0.383118361234664917 0.306878745555877686 0.32069927453994751
0.626786947250366211 -0.308447748422622681 0.371792912483215332
0.808624148368835449 0.00688332226127386093 0.202336743474006653
0.810580790042877197 0.0863670781254768372 0.0830739736557006836
0.7040138840675354 0.0991433709859848022 0.167774930596351624
0.351433515548706055 -0.48209303617477417 0.399901151657104492
0.828103601932525635 0.0677521005272865295 0.126111045479774475
0.647614538669586182 0.195156484842300415 0.240389823913574219
0.585270524024963379 0.216353818774223328 0.247749686241149902
0.777194619178771973 0.0437175184488296509 0.183624267578125
0.570953547954559326 0.223795339465141296 0.262112677097320557
0.749254226684570312 0.00302495178766548634 0.204265788197517395
0.334015399217605591 0.319276183843612671 0.343482524156570435
0.776764750480651855 0.0668183937668800354 0.101462677121162415
0.224298834800720215 0.182611048221588135 0.507457613945007324
0.345868974924087524 0.270217716693878174 0.418132126331329346
0.775702834129333496 0.0382961258292198181 0.180154383182525635
0.592843472957611084 0.199096903204917908 0.236459150910377502
0.765412271022796631 0.0940473377704620361 0.180235877633094788
0.515550851821899414 -0.38160821795463562 0.390171855688095093
0.347871959209442139 0.31847575306892395 0.343636393547058105
0.501137912273406982 -0.391683429479598999 0.382851570844650269
0.705027461051940918 -0.19464440643787384 0.328979194164276123
0.719636023044586182 -0.118426591157913208 0.28594014048576355
0.701110005378723145 -0.013617183081805706 0.215686649084091187
0.737080216407775879 0.00771987903863191605 0.300121277570724487
0.506966292858123779 0.24976658821105957 0.333184212446212769
0.759470939636230469 -0.0982350409030914307 0.280581623315811157
0.617679119110107422 -0.314135372638702393 0.381265014410018921
0.363060951232910156 0.260949760675430298 0.423449665307998657
0.0765949934720993042 -0.562418043613433838 0.38798987865447998
0.804618537425994873 0.0900420919060707092 0.0979913398623466492
0.750553429126739502 0.00788779929280281067 0.295422673225402832
0.618065357208251953 0.218232110142707825 0.244500741362571716
0.489786505699157715 0.257316142320632935 0.349153101444244385
0.743000030517578125 -0.000375828647520393133 0.314355432987213135
0.625676631927490234 -0.280384987592697144 0.36563679575920105
0.589001715183258057 -0.321887880563735962 0.371737450361251831
0.655206978321075439 -0.278787344694137573 0.359051316976547241
0.7966880202293396 0.0360615216195583344 0.194159045815467834
0.493669956922531128 -0.401305735111236572 0.378441691398620605
0.215312689542770386 0.199393659830093384 0.512548267841339111
0.580390989780426025 0.214182227849960327 0.250539302825927734
0.194875568151473999 -0.543277382850646973 0.380355775356292725
0.347417831420898438 0.314611136913299561 0.335043370723724365
0.722280323505401611 0.116184264421463013 0.179739490151405334
0.696476995944976807 0.0999255552887916565 0.171010866761207581
0.220004349946975708 0.187764585018157959 0.529047131538391113
0.7153053879737854 -0.135919913649559021 0.289446234703063965
0.739824235439300537 -0.105944767594337463 0.305236071348190308
0.518682479858398438 -0.392490953207015991 0.387828946113586426
0.714835703372955322 0.121637731790542603 0.174413874745368958
0.822415053844451904 0.0767620131373405457 0.124747999012470245
0.598880350589752197 0.208813652396202087 0.231294766068458557
0.749621391296386719 0.0108310338109731674 0.285102307796478271
0.670806348323822021 -0.0237900130450725555 0.413903415203094482
0.430437475442886353 -0.440232813358306885 0.395514160394668579
0.196743562817573547 0.131221309304237366 0.543520689010620117
0.713263869285583496 -0.182184904813766479 0.323312491178512573
0.643962323665618896 -0.287544369697570801 0.36531946063041687
0.193441450595855713 0.127187564969062805 0.544022202491760254
0.776216983795166016 0.086470380425453186 0.128496378660202026
0.704431116580963135 -0.192153677344322205 0.332202106714248657
0.58056873083114624 -0.321091562509536743 0.419824540615081787
0.207445889711380005 0.185760825872421265 0.530202388763427734
0.447674006223678589 0.264176338911056519 0.377204537391662598
0.222181200981140137 -0.534372925758361816 0.387774080038070679
0.687507987022399902 -0.184810280799865723 0.333219558000564575
0.750458300113677979 -0.0493184551596641541 0.228522971272468567
0.62458878755569458 -0.240613788366317749 0.31701245903968811
0.580314457416534424 -0.347983121871948242 0.365907520055770874
0.741730988025665283 -0.0476623773574829102 0.245238423347473145
0.79444432258605957 -0.00568805914372205734 0.216246873140335083
0.0820341035723686218 -0.559010744094848633 0.375054419040679932
0.740290343761444092 0.110197253525257111 0.178783506155014038
0.627018570899963379 0.17832164466381073 0.197623014450073242
0.750171482563018799 -0.011092660017311573 0.205498024821281433
0.799218654632568359 0.0592495761811733246 0.0509163141250610352
0.461008995771408081 0.274541169404983521 0.367592930793762207
0.376909881830215454 0.26643669605255127 0.428170561790466309
0.571304082870483398 0.232618585228919983 0.266778141260147095
0.750038325786590576 0.00817897170782089233 0.325431168079376221
-0.205408334732055664 -0.577459216117858887 0.382253557443618774
0.768388569355010986 -0.0543347634375095367 0.260306954383850098
0.618027389049530029 0.187365919351577759 0.210166513919830322
0.431492835283279419 0.28907814621925354 0.316010624170303345
0.784187257289886475 0.0907478407025337219 0.0505814552307128906
0.211075127124786377 0.17705981433391571 0.533885717391967773
0.136912301182746887 -0.543882250785827637 0.377151131629943848
0.467523038387298584 -0.428490370512008667 0.398189574480056763
0.113117575645446777 -0.558802783489227295 0.383274048566818237
0.776667892932891846 0.0795771181583404541 0.121538653969764709
0.751178562641143799 0.00693119410425424576 0.266431808471679688
0.648454129695892334 -0.242449671030044556 0.336692482233047485
0.259125292301177979 0.210215598344802856 0.507785975933074951
0.258613437414169312 0.21796812117099762 0.493352293968200684
0.819470822811126709 0.0570475049316883087 0.144007563591003418
0.220274850726127625 0.172080591320991516 0.51972043514251709
0.403923213481903076 -0.458908736705780029 0.383552789688110352
0.448817610740661621 0.28029632568359375 0.311366915702819824
0.528052926063537598 -0.368211865425109863 0.390666753053665161
-0.00645287428051233292 -0.57161945104598999 0.362782984972000122
0.806868791580200195 0.00818907283246517181 0.203991562128067017
0.74172598123550415 0.00951945595443248749 0.329831987619400024
0.669081807136535645 0.147229745984077454 0.200552418828010559
0.62525564432144165 0.160190269351005554 0.193808883428573608
0.792896509170532227 -0.0116395279765129089 0.211826980113983154
0.186489656567573547 0.172442197799682617 0.529938220977783203
0.633251786231994629 0.211994275450706482 0.244760215282440186
-0.227462425827980042 -0.57833707332611084 0.380546480417251587
-0.295351982116699219 -0.565383195877075195 0.366930723190307617
0.577600479125976562 0.241823896765708923 0.282061189413070679
0.347710013389587402 0.311237692832946777 0.34098893404006958
0.490279734134674072 0.272676944732666016 0.306122422218322754
0.776759445667266846 0.0857094153761863708 0.104095876216888428
0.695250213146209717 -0.157088056206703186 0.3249167799949646
0.55620265007019043 -0.319984376430511475 0.444793552160263062
0.814307093620300293 0.0791163668036460876 0.0692076608538627625
0.540872752666473389 -0.372948348522186279 0.391530871391296387
0.441651433706283569 -0.435033738613128662 0.378051340579986572
0.203767657279968262 -0.529288768768310547 0.385254472494125366
0.789794981479644775 0.0506504252552986145 0.178692519664764404
0.730774283409118652 0.00418261345475912094 0.258631676435470581
0.225530475378036499 0.20149308443069458 0.516903042793273926
0.830899417400360107 0.0675294846296310425 0.139902785420417786
0.45324784517288208 0.258922964334487915 0.386698603630065918
0.784029126167297363 0.0847271084785461426 0.117055922746658325
0.578353941440582275 0.220448523759841919 0.288976043462753296
0.447433143854141235 0.281384497880935669 0.316899985074996948
0.631971836090087891 0.200279653072357178 0.215316042304039001
0.558183550834655762 -0.320266127586364746 0.438556432723999023
0.156091839075088501 -0.545166134834289551 0.371431678533554077
0.598408341407775879 0.197463080286979675 0.251862496137619019
0.406000792980194092 0.274413913488388062 0.407261490821838379
0.33303147554397583 -0.479556828737258911 0.394102662801742554
0.739516973495483398 0.00792724639177322388 0.232450380921363831
0.647232413291931152 0.172679632902145386 0.218905597925186157
0.830492258071899414 0.0643754154443740845 0.13855646550655365
0.377136588096618652 0.313253432512283325 0.322656303644180298
0.714424669742584229 0.121885351836681366 0.179453089833259583
0.68700253963470459 -0.17383277416229248 0.321113824844360352
0.735869526863098145 0.0028142931405454874 0.274570494890213013
0.285363286733627319 -0.492261111736297607 0.401596546173095703
0.00710098911076784134 0.0106078851968050003 0.606832742691040039
0.659988522529602051 -0.218938663601875305 0.339839786291122437
0.758485555648803711 -0.0194825809448957443 0.217958018183708191
0.133463859558105469 -0.543222546577453613 0.376556754112243652
0.496673643589019775 0.25829005241394043 0.344824701547622681
0.768224656581878662 0.0236548334360122681 0.187697738409042358
0.567472636699676514 0.247903823852539062 0.296590894460678101
0.741035759449005127 0.00935271847993135452 0.324987918138504028
0.0885246917605400085 0.0663824230432510376 0.598545551300048828
0.497806161642074585 0.257333844900131226 0.363709688186645508
0.763545811176300049 -0.044429875910282135 0.260567128658294678
-0.00334899709559977055 -0.0107974279671907425 0.605978965759277344
0.589475274085998535 0.233912199735641479 0.28797951340675354
0.621347486972808838 -0.305762916803359985 0.358388721942901611
0.783465743064880371 0.0852397456765174866 0.098158620297908783
0.312379449605941772 -0.497763603925704956 0.409893155097961426
0.781666100025177002 0.0426485054194927216 0.186622649431228638
0.75847470760345459 0.00739592313766479492 0.194777339696884155
0.741286695003509521 -0.0448576658964157104 0.252983778715133667
0.795059740543365479 0.0925469547510147095 0.138317137956619263
0.528611421585083008 -0.362290769815444946 0.381032258272171021
0.795702517032623291 0.031716957688331604 0.150702700018882751
0.567107021808624268 -0.362594842910766602 0.370896667242050171
0.645545125007629395 -0.254025191068649292 0.359836757183074951
0.821229457855224609 0.0865866914391517639 0.102326087653636932
0.624610602855682373 -0.307616770267486572 0.377603501081466675
0.821656405925750732 0.0742955505847930908 0.102976061403751373
0.169232740998268127 0.144296854734420776 0.549495577812194824
0.241337105631828308 -0.515797078609466553 0.406320452690124512
0.627596557140350342 -0.299042701721191406 0.353755474090576172
0.70402216911315918 -0.140075966715812683 0.306734204292297363
0.585539400577545166 -0.352334201335906982 0.37580639123916626
0.758820235729217529 0.017674839124083519 0.184382468461990356
0.265191614627838135 0.220066741108894348 0.489015251398086548
0.632219910621643066 -0.0647077932953834534 0.210560008883476257
0.377315670251846313 -0.477342903614044189 0.397471785545349121
0.265811294317245483 -0.515425503253936768 0.401345759630203247
0.650976121425628662 -0.262557268142700195 0.362414181232452393
0.799189090728759766 0.0645913407206535339 0.161494836211204529
0.716074049472808838 0.119300112128257751 0.170225977897644043
0.686674237251281738 -0.226225465536117554 0.32485198974609375
0.227965891361236572 0.20545583963394165 0.512852668762207031
0.751412630081176758 0.0791952908039093018 0.148145020008087158
0.673936784267425537 -0.0368870273232460022 0.216596677899360657
0.820639252662658691 0.0267844051122665405 0.173896312713623047
0.477792322635650635 0.2658519446849823 0.360007286071777344
0.458461523056030273 0.277246147394180298 0.372814476490020752
0.320216774940490723 0.25800594687461853 0.436042189598083496
0.62631678581237793 0.216723039746284485 0.246749177575111389
0.292210936546325684 0.243706285953521729 0.473254472017288208
0.212768629193305969 -0.530250608921051025 0.374390512704849243
0.0943873375654220581 0.0725017935037612915 0.600471436977386475
0.814818203449249268 0.0747514739632606506 0.139191165566444397
0.767066121101379395 0.0922542959451675415 0.142386078834533691
0.776014506816864014 0.0828533172607421875 0.0667886659502983093
0.608355343341827393 -0.299419879913330078 0.357936292886734009
0.112885765731334686 0.0940908491611480713 0.581700801849365234
0.706483364105224609 -0.140983372926712036 0.29840165376663208
-0.196031525731086731 -0.578229427337646484 0.38662990927696228
0.278202742338180542 -0.512154221534729004 0.404954105615615845
0.709171950817108154 0.106445454061031342 0.16387505829334259
0.748169422149658203 -0.0243404936045408249 0.236534014344215393
0.767349600791931152 -0.0622199103236198425 0.271109938621520996
0.822759151458740234 0.0477969497442245483 0.168604001402854919
0.749417781829833984 0.00349521590396761894 0.313217878341674805
0.325039476156234741 0.255495518445968628 0.440404742956161499
5.85310881433542818e-05 -0.0027736220508813858 0.606845319271087646
0.650936365127563477 -0.0463573932647705078 0.214437291026115417
0.121463499963283539 -0.556850552558898926 0.380985885858535767
0.260734051465988159 -0.51001584529876709 0.415356755256652832
0.748787581920623779 -0.0209459848701953888 0.228958651423454285
0.774270355701446533 0.0663997679948806763 0.121503271162509918
0.685796678066253662 0.134967461228370667 0.176607623696327209
0.765606701374053955 -0.0565501600503921509 0.249776154756546021
0.707299947738647461 -0.202200591564178467 0.330096036195755005
0.161834999918937683 0.120600283145904541 0.545980870723724365
0.74091804027557373 -0.0589344538748264313 0.252199888229370117
0.813190877437591553 0.0663060173392295837 0.0628722384572029114
0.637482881546020508 0.194412276148796082 0.244013026356697083
0.665688753128051758 -0.251599699258804321 0.334028303623199463
0.642908275127410889 0.193269789218902588 0.209261000156402588
0.632623970508575439 0.20323258638381958 0.229441821575164795
0.750735998153686523 -0.00429530395194888115 0.233034268021583557
0.806538820266723633 0.0869315490126609802 0.116053380072116852
0.723950743675231934 0.0844935998320579529 0.165704071521759033
0.499880522489547729 -0.401241064071655273 0.393762111663818359
0.225866556167602539 -0.53125762939453125 0.386769562959671021
0.665765881538391113 -0.039552103728055954 0.220737040042877197
0.641245365142822266 0.195052489638328552 0.210750743746757507
0.550301730632781982 -0.357324779033660889 0.372902005910873413
0.48389047384262085 -0.40352165699005127 0.387203782796859741
0.751354396343231201 0.00518435705453157425 0.314509302377700806
0.741660892963409424 -0.00659779924899339676 0.225310727953910828
0.777486860752105713 0.0488075055181980133 0.173215895891189575
0.38430061936378479 0.308294475078582764 0.327546507120132446
0.750028848648071289 0.00242699007503688335 0.321500003337860107
0.54770815372467041 -0.318845152854919434 0.444274842739105225
0.625814199447631836 -0.0564071685075759888 0.216796860098838806
0.0112828239798545837 0.0142793618142604828 0.603917837142944336
0.740760922431945801 -0.0517436154186725616 0.263956636190414429
0.415678650140762329 -0.447835624217987061 0.378651738166809082
0.707120597362518311 -0.164255976676940918 0.299823522567749023
0.539672017097473145 0.247359514236450195 0.287221997976303101
0.502376914024353027 0.265827715396881104 0.301177829504013062
0.824236690998077393 0.0271676108241081238 0.186411604285240173
0.767791986465454102 -0.0656314343214035034 0.276175796985626221
0.630780518054962158 0.161246567964553833 0.190359652042388916
0.78458791971206665 0.0888241752982139587 0.168496787548065186
0.822115778923034668 0.0481090322136878967 0.156553536653518677
0.605230748653411865 0.182301118969917297 0.227149784564971924
0.103761978447437286 0.0783745497465133667 0.594193935394287109
0.706900060176849365 0.0921626091003417969 0.18156878650188446
0.64084172248840332 0.146937176585197449 0.184432238340377808
0.463312327861785889 -0.415594577789306641 0.396446883678436279
0.0969874635338783264 0.0847768336534500122 0.590748786926269531
0.352332472801208496 0.315840840339660645 0.340354830026626587
0.818973541259765625 0.0519752614200115204 0.138847067952156067
0.31520417332649231 -0.483483374118804932 0.407563954591751099
0.595659494400024414 -0.318160593509674072 0.363791465759277344
0.745490610599517822 0.00336629617959260941 0.311798155307769775
0.756066679954528809 -0.0514355674386024475 0.236924797296524048
0.407623708248138428 -0.463309943675994873 0.393210679292678833
0.725857913494110107 -0.099195331335067749 0.287596166133880615
0.170861095190048218 0.117054663598537445 0.560172140598297119
0.194351032376289368 0.180519387125968933 0.524215519428253174
0.521963119506835938 0.254538774490356445 0.316581606864929199
0.818235516548156738 0.0399795472621917725 0.145500943064689636
0.811097502708435059 0.0585380680859088898 0.168823316693305969
0.00145273772068321705 0.0143194766715168953 0.605305731296539307
0.637609302997589111 -0.292994379997253418 0.355708599090576172
0.550101935863494873 -0.329520434141159058 0.443299621343612671
0.71526259183883667 -0.190636798739433289 0.319130122661590576
0.750080585479736328 0.00341703020967543125 0.304444998502731323
0.52789837121963501 -0.328550219535827637 0.460297942161560059
0.637400269508361816 -0.268364816904067993 0.364945352077484131
0.66055828332901001 0.125884905457496643 0.178778097033500671
0.50023806095123291 -0.332386642694473267 0.476309895515441895
0.667911350727081299 -0.0211693793535232544 0.414616107940673828
-0.312914609909057617 -0.562864184379577637 0.374219119548797607
0.737762629985809326 -0.00119629933033138514 0.246511563658714294
0.0982885956764221191 0.0869783461093902588 0.593901932239532471
0.14494776725769043 -0.537508249282836914 0.379473358392715454
0.348649114370346069 0.272172659635543823 0.43646511435508728
0.760649800300598145 -0.0451489686965942383 0.225793451070785522
-0.266067057847976685 -0.578588008880615234 0.375596970319747925
0.752052247524261475 0.0728911012411117554 0.158429175615310669
0.757093548774719238 0.00821005739271640778 0.204740017652511597
0.714705824851989746 -0.1250314861536026 0.298099756240844727
0.559993267059326172 0.240378260612487793 0.308661669492721558
0.743743181228637695 -0.0564209744334220886 0.270688921213150024
0.356091856956481934 0.26534038782119751 0.434579193592071533
0.577785253524780273 -0.339645981788635254 0.362223446369171143
0.619598567485809326 -0.313379466533660889 0.377353847026824951
0.727611899375915527 0.110509485006332397 0.184352114796638489
0.00345042441040277481 -0.570909559726715088 0.366008192300796509
0.570099413394927979 -0.321799248456954956 0.436841189861297607
0.654762983322143555 -0.236283481121063232 0.346036761999130249
0.399093210697174072 0.276600509881973267 0.411502361297607422
0.785691976547241211 0.0697891190648078918 0.183259829878807068
0.0415939725935459137 0.0393954254686832428 0.610124588012695312
0.512683212757110596 -0.391252785921096802 0.392521679401397705
0.741303563117980957 -0.121253304183483124 0.302672863006591797
0.6413612961769104 0.196693077683448792 0.247016817331314087
0.82292097806930542 0.0758424699306488037 0.133323714137077332
0.777526259422302246 0.0749741420149803162 0.0648022070527076721
0.703896820545196533 -0.191181853413581848 0.315459489822387695
0.795422494411468506 0.0155251612886786461 0.215891808271408081
0.483635395765304565 -0.421909868717193604 0.387456178665161133
0.685701608657836914 -0.180799946188926697 0.33416593074798584
0.634869039058685303 -0.258334636688232422 0.354228228330612183
0.736968159675598145 0.0122842499986290932 0.300813883543014526
0.267322272062301636 0.208976998925209045 0.502346158027648926
0.745933175086975098 0.00339714228175580502 0.296512752771377563
0.775852203369140625 0.0760776400566101074 0.114365309476852417
0.590076565742492676 0.222960487008094788 0.280902832746505737
0.414362996816635132 -0.459753155708312988 0.393702507019042969
0.741852939128875732 0.0915826186537742615 0.191309303045272827
0.716586887836456299 -0.122793704271316528 0.311037182807922363
0.366973251104354858 0.310305893421173096 0.328229695558547974
0.714962184429168701 -0.117222130298614502 0.296185880899429321
0.813836097717285156 0.0618869699537754059 0.0585169792175292969
0.354211479425430298 0.271935492753982544 0.435474783182144165
0.715887367725372314 -0.19146941602230072 0.319512307643890381
0.65899205207824707 -0.231135115027427673 0.330026298761367798
0.368165314197540283 0.266397267580032349 0.433758854866027832
0.605287611484527588 0.22629605233669281 0.24771466851234436
0.574106931686401367 0.246300771832466125 0.298382997512817383
0.776435434818267822 0.0732120946049690247 0.113550953567028046
0.250061303377151489 -0.516106486320495605 0.398961275815963745
0.606613099575042725 -0.298448741436004639 0.380311727523803711
0.312311917543411255 0.254060655832290649 0.447426438331604004
0.725279867649078369 -0.115577906370162964 0.282044172286987305
0.279542654752731323 0.228128582239151001 0.492307871580123901
0.598868370056152344 -0.252058178186416626 0.307014614343643188
0.185768380761146545 0.128055974841117859 0.548967063426971436
0.0801066160202026367 -0.559328258037567139 0.388026833534240723
0.527928650379180908 0.24134548008441925 0.327405422925949097
0.694988787174224854 -0.205940946936607361 0.339803487062454224
0.48367774486541748 -0.418271929025650024 0.395220249891281128
0.307310134172439575 0.228779122233390808 0.472178071737289429
0.518748939037322998 -0.373843938112258911 0.370180189609527588
0.18806186318397522 0.164628580212593079 0.541976690292358398
0.607005834579467773 -0.336416453123092651 0.376643180847167969
0.161618396639823914 0.129328489303588867 0.555387675762176514
0.750465452671051025 0.0985444113612174988 0.156935125589370728
0.660241901874542236 -0.222176656126976013 0.329370945692062378
0.75491642951965332 -0.0985878780484199524 0.274056017398834229
0.828814804553985596 0.0456813238561153412 0.16291084885597229
0.223264321684837341 0.181245118379592896 0.525809943675994873
0.719455599784851074 -0.171568185091018677 0.325643777847290039
0.804551839828491211 0.0737617164850234985 0.0501932390034198761
0.451492875814437866 -0.438314050436019897 0.378371596336364746
0.727128386497497559 0.0926162824034690857 0.187003776431083679
0.588571429252624512 -0.314503610134124756 0.400371283292770386
0.267355531454086304 0.206580698490142822 0.485717236995697021
0.0123263588175177574 -0.570768117904663086 0.367757588624954224
0.345242083072662354 -0.48119962215423584 0.40471222996711731
0.68868023157119751 0.131524175405502319 0.192240491509437561
0.804685056209564209 0.0894235521554946899 0.0992228984832763672
0.745694994926452637 0.00666541140526533127 0.307030349969863892
0.696180224418640137 0.103577502071857452 0.167317405343055725
0.160167843103408813 0.12074597179889679 0.546992242336273193
0.759653449058532715 -0.0902451574802398682 0.271470516920089722
0.786798000335693359 0.00382075062952935696 0.186493396759033203
0.693059146404266357 -0.16518479585647583 0.317275404930114746
0.619188904762268066 0.212208390235900879 0.229002147912979126
0.628180325031280518 -0.273563385009765625 0.364906907081604004
0.426975071430206299 0.298383325338363647 0.320956021547317505
0.714086532592773438 -0.12784208357334137 0.288289487361907959
0.695297718048095703 -0.218921497464179993 0.320312917232513428
0.119547463953495026 0.111915171146392822 0.568615972995758057
0.200046658515930176 0.174254477024078369 0.516885340213775635
0.688374757766723633 0.120650500059127808 0.16755560040473938
0.513556540012359619 0.2653999924659729 0.338726937770843506
0.671835362911224365 0.124750636518001556 0.1735849529504776
0.600330770015716553 0.187936276197433472 0.233502373099327087
0.69051051139831543 0.137915506958961487 0.182785749435424805
0.699461817741394043 0.130886569619178772 0.187140747904777527
0.668334782123565674 0.134737133979797363 0.199602708220481873
0.231053903698921204 0.203345730900764465 0.517536520957946777
0.419052779674530029 0.299686044454574585 0.3203011155128479
0.690429508686065674 -0.0140036521479487419 0.387419730424880981
0.794059336185455322 0.0903018638491630554 0.158459395170211792
0.709305405616760254 0.0919572412967681885 0.174064561724662781
-0.0356345288455486298 -0.578538000583648682 0.362393975257873535
