ply
format ascii 1.0
element vertex 731
comment vertices
property float x
property float y
property float z
end_header
-0.00383904436603188515 -0.243236005306243896 -0.365846067667007446
0.390494555234909058 -0.267248749732971191 -0.335710495710372925
-0.358515888452529907 -0.185436800122261047 0.279420942068099976
-0.19960455596446991 0.0430782660841941833 -0.16717742383480072
0.376631408929824829 -0.246158912777900696 -0.333724349737167358
-0.196717441082000732 -0.0638021528720855713 -0.245715156197547913
0.101485125720500946 -0.249157875776290894 -0.37561643123626709
0.571686327457427979 -0.232932344079017639 -0.203090891242027283
0.0229618996381759644 -0.231468796730041504 -0.391039371490478516
-0.151381686329841614 0.179334670305252075 0.0580340921878814697
-0.176724702119827271 -0.074436381459236145 -0.269252657890319824
-0.259009689092636108 -0.0629905089735984802 0.0936125665903091431
0.000607471331022679806 -0.233741804957389832 -0.38374251127243042
-0.184714823961257935 0.184794008731842041 0.0867766290903091431
-0.0853419303894042969 0.149168059229850769 -0.0306469965726137161
0.606222808361053467 -0.130294755101203918 -0.117714323103427887
-0.207818463444709778 0.0241321232169866562 -0.154754012823104858
0.607554137706756592 -0.151963874697685242 -0.135767236351966858
0.562273979187011719 -0.149658754467964172 -0.135442748665809631
0.238225251436233521 -0.241286769509315491 -0.376901984214782715
-0.150775834918022156 -0.153499022126197815 -0.319130569696426392
0.53991621732711792 -0.194925874471664429 -0.181177332997322083
0.547731578350067139 -0.182131111621856689 -0.171468347311019897
0.278105050325393677 -0.25010216236114502 -0.343588829040527344
-0.187369242310523987 -0.0576373934745788574 -0.26423296332359314
0.606635928153991699 -0.155367955565452576 -0.129600927233695984
-0.227558672428131104 0.0742904916405677795 -0.0909564271569252014
0.565220475196838379 -0.221199855208396912 -0.181086555123329163
-0.19560733437538147 0.072121545672416687 -0.116880334913730621
0.540408730506896973 -0.255159139633178711 -0.254882633686065674
0.376133143901824951 -0.268592655658721924 -0.339815348386764526
-0.174993813037872314 -0.144015401601791382 -0.335620671510696411
0.358783155679702759 -0.26762118935585022 -0.378546148538589478
-0.210816532373428345 0.0808508396148681641 -0.0879128575325012207
0.28222927451133728 -0.254066169261932373 -0.37049296498298645
0.252289712429046631 -0.265518814325332642 -0.354055017232894897
-0.232285365462303162 -0.0680997148156166077 -0.245569825172424316
0.00784109160304069519 -0.225218102335929871 -0.367422223091125488
0.357398748397827148 -0.245985135436058044 -0.335177063941955566
-0.207875713706016541 -0.0180830061435699463 -0.193703398108482361
0.519651651382446289 -0.247888028621673584 -0.264576703310012817
0.193241551518440247 -0.229605257511138916 -0.374647974967956543
0.31093260645866394 -0.24341447651386261 -0.349772036075592041
-0.330879032611846924 -0.125572413206100464 0.21603846549987793
0.326798617839813232 -0.262149453163146973 -0.327957034111022949
-0.356363683938980103 -0.199649050831794739 0.31591874361038208
0.402263045310974121 -0.261857122182846069 -0.304384946823120117
0.422670811414718628 -0.267743855714797974 -0.295795917510986328
-0.209614962339401245 0.0581233911216259003 -0.085806041955947876
0.0179294515401124954 -0.226577192544937134 -0.394163310527801514
-0.199657320976257324 -0.0756282135844230652 -0.250593602657318115
-0.196787476539611816 0.0458008833229541779 -0.134078547358512878
-0.089892260730266571 0.147351905703544617 -0.0148155763745307922
-0.233139857649803162 0.0698411539196968079 -0.0847782641649246216
-0.256961584091186523 -0.0296084955334663391 0.0864374414086341858
-0.296495705842971802 -0.0880181863903999329 0.13180987536907196
-0.249896198511123657 0.0246459990739822388 0.0372653119266033173
0.363524258136749268 -0.263108640909194946 -0.349398881196975708
-0.122977748513221741 0.119249969720840454 -0.0582231655716896057
-0.22490265965461731 0.168314471840858459 0.12865111231803894
-0.196474283933639526 -0.0247915647923946381 -0.244835764169692993
-0.238880529999732971 0.0490710251033306122 -0.040406499058008194
0.34728008508682251 -0.250026077032089233 -0.334161698818206787
-0.0889854729175567627 0.196569815278053284 0.0408985428512096405
0.301780730485916138 -0.268291831016540527 -0.348961323499679565
0.170229628682136536 -0.254228025674819946 -0.375432223081588745
0.508296072483062744 -0.259812325239181519 -0.265463739633560181
-0.21112629771232605 -0.0752239897847175598 -0.275458753108978271
-0.17101973295211792 -0.140434369444847107 -0.331246256828308105
0.595360100269317627 -0.126617267727851868 -0.125125765800476074
0.593980729579925537 -0.131373494863510132 -0.129681512713432312
0.450332134962081909 -0.235721290111541748 -0.297502249479293823
-0.121822915971279144 0.117513313889503479 -0.0558700636029243469
0.108660198748111725 -0.243232160806655884 -0.387545168399810791
-0.254459559917449951 0.0234014708548784256 0.0558022595942020416
-0.197321966290473938 0.0664047002792358398 -0.128310889005661011
-0.0154034281149506569 -0.251113086938858032 -0.372798025608062744
-0.196333959698677063 0.00105038424953818321 -0.192725107073783875
-0.308230608701705933 -0.101400084793567657 0.143203467130661011
-0.26032334566116333 -0.00823168084025382996 0.062708832323551178
0.550032496452331543 -0.251960307359695435 -0.230367377400398254
-0.228763625025749207 0.0501207895576953888 -0.013745003379881382
0.245620816946029663 -0.249044269323348999 -0.347580403089523315
0.0188858713954687119 -0.212002366781234741 -0.383986324071884155
0.158117204904556274 -0.244266033172607422 -0.380985110998153687
0.46564638614654541 -0.238376706838607788 -0.271064311265945435
0.329722464084625244 -0.247347697615623474 -0.357233673334121704
0.472507834434509277 -0.241922184824943542 -0.309243232011795044
0.557972431182861328 -0.231357380747795105 -0.233271822333335876
-0.366604864597320557 -0.185767024755477905 0.286481797695159912
-0.214609310030937195 -0.0782406404614448547 -0.270235925912857056
0.230024784803390503 -0.237013489007949829 -0.371430784463882446
0.00865824613720178604 -0.219479411840438843 -0.367468297481536865
0.0312868878245353699 -0.237231343984603882 -0.369845390319824219
-0.125028744339942932 0.170655325055122375 0.0339243672788143158
-0.188557550311088562 0.0677533596754074097 -0.109170123934745789
-0.21790255606174469 0.0145290633663535118 -0.157663524150848389
0.408557623624801636 -0.269156605005264282 -0.305500507354736328
-0.358662694692611694 -0.188545480370521545 0.29447588324546814
-0.134611025452613831 -0.177067071199417114 -0.350484490394592285
-0.312732189893722534 -0.137478053569793701 0.21498166024684906
0.557919800281524658 -0.238192528486251831 -0.203676432371139526
0.484215259552001953 -0.251603096723556519 -0.291047841310501099
0.597891032695770264 -0.187732309103012085 -0.162352487444877625
-0.159613728523254395 -0.184172362089157104 -0.339929580688476562
-0.100804030895233154 -0.197504997253417969 -0.359666526317596436
0.598767936229705811 -0.171471372246742249 -0.138788178563117981
-0.283507585525512695 -0.0882989093661308289 0.119398050010204315
0.182100012898445129 -0.238849565386772156 -0.38659784197807312
0.106561042368412018 -0.24748934805393219 -0.384024530649185181
-0.223603412508964539 -0.0133620211854577065 -0.191140100359916687
0.419493108987808228 -0.258882731199264526 -0.295962899923324585
-0.164437636733055115 -0.133364588022232056 -0.325665980577468872
-0.302266389131546021 -0.101428203284740448 0.189630880951881409
-0.267860591411590576 -0.0116688907146453857 0.0714387670159339905
-0.202916860580444336 -0.0990709662437438965 -0.295738160610198975
-0.200413450598716736 0.178682148456573486 0.0985264033079147339
-0.254343777894973755 0.00356889818795025349 0.0675008669495582581
-0.26023709774017334 -0.0515360273420810699 0.0951116383075714111
0.371900707483291626 -0.269063711166381836 -0.323669701814651489
0.320430546998977661 -0.264668792486190796 -0.356661617755889893
-0.216481983661651611 -0.0540022291243076324 -0.254894733428955078
-0.215651094913482666 0.0706795752048492432 -0.0687801241874694824
-0.302130371332168579 -0.0889442190527915955 0.139458835124969482
-0.223230212926864624 0.0493180602788925171 -0.0379973500967025757
0.0846066027879714966 -0.224086537957191467 -0.394144594669342041
-0.187627285718917847 -0.143988490104675293 -0.325221091508865356
-0.354311764240264893 -0.177924126386642456 0.251098752021789551
-0.250610798597335815 0.0348942913115024567 -0.00145391328260302544
-0.30764162540435791 -0.121069110929965973 0.215181753039360046
-0.162362590432167053 -0.183699890971183777 -0.349386662244796753
0.495698481798171997 -0.246152177453041077 -0.287415534257888794
-0.265485972166061401 -0.0532477796077728271 0.0805584341287612915
-0.316567659378051758 -0.123149901628494263 0.216332405805587769
-0.232568204402923584 0.036947738379240036 -0.161994755268096924
-0.372263222932815552 -0.235964223742485046 0.344614148139953613
0.441334694623947144 -0.260242879390716553 -0.316595792770385742
-0.231761649250984192 0.0460779070854187012 -0.152935221791267395
-0.0999379009008407593 0.154177889227867126 -0.00265057990327477455
0.594227313995361328 -0.128093212842941284 -0.10953926295042038
-0.24759538471698761 0.0397392399609088898 -0.015377432107925415
0.209076344966888428 -0.24459606409072876 -0.383006155490875244
-0.226189345121383667 0.0486438088119029999 -0.121592111885547638
-0.196893051266670227 0.0768280923366546631 -0.118559427559375763
-0.157703250646591187 -0.136777088046073914 -0.308778166770935059
0.550007820129394531 -0.193209126591682434 -0.190557658672332764
0.587713778018951416 -0.130778998136520386 -0.133716404438018799
-0.195878669619560242 0.0343544371426105499 -0.152803927659988403
-0.248386472463607788 0.0506560318171977997 -0.003416780149564147
0.598251461982727051 -0.15480630099773407 -0.139387920498847961
-0.29946744441986084 -0.101356953382492065 0.130468934774398804
0.496257901191711426 -0.237084731459617615 -0.250173628330230713
-0.305479705333709717 -0.114029616117477417 0.211146220564842224
-0.124466940760612488 -0.198281794786453247 -0.36554110050201416
0.50130927562713623 -0.233844995498657227 -0.268349349498748779
0.57269585132598877 -0.153079718351364136 -0.155016034841537476
0.384311884641647339 -0.250389754772186279 -0.3435496985912323
0.38527253270149231 -0.256379455327987671 -0.3482666015625
-0.191979110240936279 -0.0640666261315345764 -0.276498407125473022
0.541248083114624023 -0.240982040762901306 -0.201452344655990601
0.274808108806610107 -0.24627995491027832 -0.371094107627868652
-0.196886748075485229 0.0515545271337032318 -0.136089861392974854
-0.205594509840011597 0.0628763511776924133 -0.0961076393723487854
0.499900132417678833 -0.235721349716186523 -0.281490087509155273
-0.185464948415756226 0.0971330106258392334 -0.0788841098546981812
0.572841823101043701 -0.126054644584655762 -0.133187144994735718
0.14926573634147644 -0.243615269660949707 -0.361246675252914429
-0.187205642461776733 -0.128034830093383789 -0.320815771818161011
0.2452392578125 -0.235259875655174255 -0.364994853734970093
-0.200814142823219299 -0.0520862787961959839 -0.236670359969139099
0.328445971012115479 -0.25971299409866333 -0.358217447996139526
-0.205346420407295227 -0.0337294116616249084 -0.224300876259803772
0.26270371675491333 -0.259848088026046753 -0.371245890855789185
-0.21123187243938446 0.0863417461514472961 -0.105126895010471344
0.531669199466705322 -0.2191191166639328 -0.220888271927833557
-0.374721646308898926 -0.219649463891983032 0.332598477602005005
0.538988888263702393 -0.22380046546459198 -0.192278280854225159
-0.269094705581665039 0.010354951024055481 0.0574223510921001434
-0.178656131029129028 0.0814139097929000854 -0.0898164510726928711
0.140027359127998352 -0.237736597657203674 -0.364666670560836792
0.473528474569320679 -0.238940775394439697 -0.305593788623809814
-0.321473419666290283 -0.152887657284736633 0.23441845178604126
0.267285138368606567 -0.262366324663162231 -0.355407893657684326
-0.163564667105674744 -0.132765024900436401 -0.325774848461151123
0.404226630926132202 -0.246354669332504272 -0.32372361421585083
0.569307208061218262 -0.177645385265350342 -0.181269541382789612
0.137063324451446533 -0.238535329699516296 -0.362607508897781372
-0.265059620141983032 0.00375143694691359997 0.056447640061378479
-0.228111788630485535 0.0659211575984954834 -0.0610134266316890717
0.596641361713409424 -0.16288478672504425 -0.127100706100463867
-0.303679972887039185 -0.109631940722465515 0.182028889656066895
-0.180039405822753906 -0.0866945013403892517 -0.276928722858428955
0.316573441028594971 -0.250092357397079468 -0.357501775026321411
-0.197342142462730408 0.0390039905905723572 -0.143271118402481079
-0.358726471662521362 -0.191223666071891785 0.278319031000137329
0.0725222751498222351 -0.225906774401664734 -0.387970268726348877
-0.220880761742591858 0.0648781582713127136 -0.0916251465678215027
0.276719719171524048 -0.253447622060775757 -0.343248486518859863
-0.362694680690765381 -0.183573126792907715 0.266968697309494019
-0.0104050282388925552 -0.24818672239780426 -0.366408020257949829
0.387850433588027954 -0.269370943307876587 -0.323609650135040283
-0.120689347386360168 0.136315479874610901 -0.052127201110124588
-0.192510336637496948 -0.106451250612735748 -0.308500319719314575
-0.14226512610912323 -0.172691643238067627 -0.322755426168441772
0.36622282862663269 -0.277480483055114746 -0.394382774829864502
0.54748612642288208 -0.201996803283691406 -0.171617582440376282
-0.260144263505935669 0.0310146864503622055 0.0332751870155334473
0.560720205307006836 -0.140040993690490723 -0.122514747083187103
-0.21565479040145874 -0.0552772320806980133 -0.238998979330062866
-0.202613800764083862 -0.0866680815815925598 -0.290057867765426636
-0.175714224576950073 -0.148484319448471069 -0.335345715284347534
-0.187428325414657593 -0.154747933149337769 -0.316122710704803467
0.566387295722961426 -0.199146226048469543 -0.156133726239204407
-0.188233032822608948 0.0816094651818275452 -0.0998608618974685669
-0.213313207030296326 0.0575129427015781403 -0.0971228480339050293
0.499823987483978271 -0.235674500465393066 -0.272196054458618164
-0.0894502028822898865 0.161935627460479736 -0.0173283722251653671
0.0469752103090286255 -0.244591221213340759 -0.376124590635299683
-0.162461578845977783 -0.165960729122161865 -0.317862242460250854
-0.110092058777809143 0.119954749941825867 -0.0460553988814353943
0.580133020877838135 -0.206409305334091187 -0.191915407776832581
0.226110070943832397 -0.237312406301498413 -0.361443907022476196
-0.302972078323364258 -0.110854640603065491 0.192769885063171387
0.362758636474609375 -0.246121421456336975 -0.349385321140289307
-0.258494168519973755 -0.0520979799330234528 0.0848794057965278625
-0.192826539278030396 0.00421528378501534462 -0.206563279032707214
0.224274992942810059 -0.241785377264022827 -0.354648321866989136
0.608203291893005371 -0.159022614359855652 -0.134083941578865051
-0.0784495845437049866 -0.231106176972389221 -0.349938124418258667
0.430811196565628052 -0.24362577497959137 -0.29574054479598999
0.509197354316711426 -0.256020337343215942 -0.251467227935791016
-0.207528486847877502 0.172941431403160095 0.0976695939898490906
-0.218675941228866577 0.0659064352512359619 -0.139164716005325317
0.366378277540206909 -0.271744698286056519 -0.331498175859451294
-0.134551987051963806 0.238622337579727173 0.113864198327064514
0.458864718675613403 -0.243489518761634827 -0.312471002340316772
-0.320237278938293457 -0.119998164474964142 0.202155232429504395
-0.284849882125854492 -0.0916907861828804016 0.107406914234161377
0.261612802743911743 -0.237367540597915649 -0.35913926362991333
-0.298263072967529297 -0.0799934044480323792 0.111144915223121643
-0.200674340128898621 0.063701331615447998 -0.0843721181154251099
-0.301372945308685303 -0.111923754215240479 0.189383387565612793
-0.186679229140281677 -0.10551164299249649 -0.309699505567550659
-0.210478872060775757 0.0813174471259117126 -0.110425576567649841
0.562554061412811279 -0.163237541913986206 -0.147619932889938354
-0.108342207968235016 0.217729091644287109 0.0443505831062793732
0.478222310543060303 -0.251057028770446777 -0.270364671945571899
-0.205569058656692505 0.0113463262096047401 -0.19907127320766449
-0.115287952125072479 -0.207865014672279358 -0.365948885679244995
0.536371707916259766 -0.237482741475105286 -0.245865046977996826
-0.159804269671440125 -0.166349932551383972 -0.348417013883590698
0.548087894916534424 -0.22486916184425354 -0.227783322334289551
-0.249844253063201904 -0.0189433898776769638 0.0696672201156616211
-0.209669396281242371 -0.0352608263492584229 -0.252120703458786011
-0.0915025770664215088 0.159192293882369995 -0.0211616232991218567
0.591355979442596436 -0.199729964137077332 -0.174151912331581116
-0.25146716833114624 0.0284718330949544907 0.0204262975603342056
-0.303539901971817017 -0.0940945073962211609 0.119092978537082672
-0.293945223093032837 -0.0989433750510215759 0.142954856157302856
0.440737217664718628 -0.258309215307235718 -0.285386979579925537
-0.216064184904098511 0.163386031985282898 0.135652810335159302
-0.30378153920173645 -0.112503357231616974 0.193751871585845947
0.00070420681731775403 -0.216745257377624512 -0.380427718162536621
-0.254051148891448975 0.00973037350922822952 0.0643768608570098877
-0.170852944254875183 0.234101414680480957 0.171933814883232117
-0.196063220500946045 -0.00620701257139444351 -0.18971686065196991
0.191238731145858765 -0.257933884859085083 -0.369216501712799072
0.590616285800933838 -0.150510743260383606 -0.15112835168838501
0.577698707580566406 -0.199549078941345215 -0.196976646780967712
-0.100231483578681946 0.144928932189941406 -0.0414212606847286224
0.580764949321746826 -0.215910375118255615 -0.204956963658332825
0.202478811144828796 -0.241590902209281921 -0.35674363374710083
-0.140464335680007935 0.245672956109046936 0.118059240281581879
0.401103407144546509 -0.263708800077438354 -0.306099265813827515
0.526870071887969971 -0.222170040011405945 -0.212195947766304016
-0.286502152681350708 -0.0768844112753868103 0.0975318253040313721
0.00340035720728337765 -0.237488597631454468 -0.366871356964111328
-0.267159640789031982 -0.0151980342343449593 0.078757748007774353
-0.188202723860740662 -0.0435347296297550201 -0.247005924582481384
-0.251604616641998291 0.0435860417783260345 -0.0155331473797559738
-0.0940378308296203613 0.138766080141067505 -0.0286006797105073929
-0.357313245534896851 -0.185214787721633911 0.282356232404708862
-0.303702563047409058 -0.106814078986644745 0.144240394234657288
0.566805243492126465 -0.197461321949958801 -0.199153736233711243
-0.229484647512435913 0.0554520227015018463 -0.0167695656418800354
-0.116982199251651764 0.149102106690406799 0.0208876375108957291
0.201454460620880127 -0.234674006700515747 -0.364950299263000488
-0.195806831121444702 0.0543736442923545837 -0.142875313758850098
-0.249288707971572876 -0.0259617920964956284 0.0759189575910568237
-0.271390736103057861 -0.056729491800069809 0.0966101363301277161
0.530792593955993652 -0.245299771428108215 -0.256627351045608521
0.409264504909515381 -0.25877419114112854 -0.300642013549804688
-0.231439560651779175 0.0752431228756904602 -0.0846409201622009277
-0.222992703318595886 0.062183283269405365 -0.0397464483976364136
-0.2675362229347229 -0.0188659392297267914 0.0708064436912536621
-0.196165606379508972 -0.0704479962587356567 -0.278775244951248169
0.0563856326043605804 -0.244666308164596558 -0.374196141958236694
0.508891582489013672 -0.242916718125343323 -0.235038012266159058
-0.200171023607254028 -0.0276564452797174454 -0.246887162327766418
-0.150504380464553833 0.180495887994766235 0.0647616386413574219
0.106328904628753662 -0.222153499722480774 -0.373792171478271484
-0.232519865036010742 0.0343805067241191864 -0.171796396374702454
0.452397465705871582 -0.25241813063621521 -0.31435781717300415
0.56528550386428833 -0.13306136429309845 -0.132882401347160339
-0.304323673248291016 -0.106416620314121246 0.16797773540019989
-0.268439114093780518 -0.0420681536197662354 0.089419238269329071
-0.241479843854904175 0.0385612472891807556 0.0240788888186216354
0.509720087051391602 -0.24399605393409729 -0.23915448784828186
-0.14507727324962616 0.244339808821678162 0.128200829029083252
-0.356699049472808838 -0.20219045877456665 0.31301802396774292
-0.111074618995189667 0.175205767154693604 0.0301196258515119553
-0.196747168898582458 0.0276792924851179123 -0.162458017468452454
0.592519819736480713 -0.15710727870464325 -0.117607764899730682
-0.302372187376022339 -0.111255943775177002 0.2030620276927948
0.343307405710220337 -0.270080268383026123 -0.344255983829498291
0.60466080904006958 -0.158610329031944275 -0.121898636221885681
0.589016735553741455 -0.184959918260574341 -0.14867323637008667
0.366370826959609985 -0.269258677959442139 -0.317968845367431641
-0.136740520596504211 -0.167235687375068665 -0.328243046998977661
-0.215080216526985168 0.00155282346531748772 -0.21139863133430481
-0.114521652460098267 0.150238737463951111 0.00751552963629364967
-0.298980981111526489 -0.0955371782183647156 0.146853864192962646
0.482408285140991211 -0.244982585310935974 -0.264927119016647339
-0.176282495260238647 0.181702867150306702 0.0864922031760215759
-0.160685569047927856 0.0993725880980491638 -0.0827438756823539734
-0.312463104724884033 -0.126010909676551819 0.21729142963886261
-0.24934917688369751 0.0156586542725563049 0.0604116432368755341
0.430729806423187256 -0.261951982975006104 -0.287694543600082397
-0.143068164587020874 0.118599675595760345 -0.0503423139452934265
-0.367246538400650024 -0.186822935938835144 0.281961560249328613
-0.196622595191001892 0.0654470920562744141 -0.134601637721061707
-0.0891599059104919434 0.152390256524085999 -0.0160570964217185974
0.536180377006530762 -0.209923803806304932 -0.191570013761520386
0.605682492256164551 -0.127027899026870728 -0.119860239326953888
-0.195986062288284302 0.0431998446583747864 -0.162371113896369934
-0.116702742874622345 0.14749695360660553 0.0107963085174560547
0.571836173534393311 -0.235113009810447693 -0.207043975591659546
0.579604446887969971 -0.136147871613502502 -0.0997262671589851379
-0.232479274272918701 0.0435031801462173462 -0.00429992470890283585
0.482142031192779541 -0.235273063182830811 -0.256652384996414185
-0.103965260088443756 0.16988062858581543 0.0209416225552558899
-0.312708497047424316 -0.0911947637796401978 0.143869549036026001
0.497804731130599976 -0.234659239649772644 -0.247755244374275208
0.579724252223968506 -0.212358057498931885 -0.182734042406082153
0.340234488248825073 -0.255158603191375732 -0.32899048924446106
0.521008014678955078 -0.268762797117233276 -0.245895043015480042
-0.223711758852005005 -0.0689692422747612 -0.26231616735458374
-0.101557515561580658 0.228048071265220642 0.0746767148375511169
-0.16873304545879364 -0.142849758267402649 -0.307248175144195557
-0.149537339806556702 -0.14540688693523407 -0.317458778619766235
-0.205319583415985107 0.070950143039226532 -0.129854157567024231
0.367318689823150635 -0.275537341833114624 -0.380719602108001709
-0.209174260497093201 0.0377993360161781311 -0.169865429401397705
-0.195220112800598145 -0.102708771824836731 -0.302026480436325073
-0.216043561697006226 -0.0208541303873062134 -0.235370084643363953
-0.114145360887050629 0.121787704527378082 -0.0428285934031009674
-0.160793974995613098 0.237749040126800537 0.148241281509399414
-0.191927969455718994 -0.0718671604990959167 -0.251509100198745728
0.589015185832977295 -0.19707372784614563 -0.164456889033317566
-0.187085837125778198 -0.0391441583633422852 -0.238578572869300842
-0.122010998427867889 0.115948230028152466 -0.0477532409131526947
-0.208772152662277222 0.0395587794482707977 -0.168060615658760071
0.181977957487106323 -0.257381081581115723 -0.363250076770782471
-0.224798217415809631 0.155605971813201904 0.139663174748420715
-0.182745710015296936 -0.0795419067144393921 -0.262882024049758911
-0.0889514610171318054 0.201780557632446289 0.0389308072626590729
-0.0156507287174463272 -0.254569500684738159 -0.365631520748138428
-0.210952222347259521 0.0330700799822807312 -0.171735242009162903
-0.114508025348186493 -0.183464378118515015 -0.350048273801803589
-0.250330477952957153 -0.00912858638912439346 0.0755284354090690613
-0.307130128145217896 -0.102997399866580963 0.135436251759529114
-0.243186488747596741 0.0556095056235790253 -0.0470465086400508881
0.567045092582702637 -0.17938348650932312 -0.184986472129821777
-0.303757250308990479 -0.102067910134792328 0.153723925352096558
-0.250157475471496582 0.0359229035675525665 -0.0049651353619992733
-0.0892736539244651794 0.158761858940124512 -0.0116017945110797882
-0.269410997629165649 -0.0756455957889556885 0.103313624858856201
-0.224280700087547302 0.060898754745721817 -0.0369175821542739868
-0.0884962528944015503 0.187982767820358276 0.0285260174423456192
-0.366858541965484619 -0.194513261318206787 0.316374599933624268
0.534542679786682129 -0.205686509609222412 -0.192764148116111755
0.440637260675430298 -0.266969621181488037 -0.29674375057220459
-0.302969604730606079 -0.0855645984411239624 0.130347892642021179
-0.266271889209747314 -0.00468555744737386703 0.0615170560777187347
0.35927814245223999 -0.258124113082885742 -0.323272258043289185
0.220166414976119995 -0.258614510297775269 -0.355415999889373779
-0.365603238344192505 -0.240084648132324219 0.342644095420837402
-0.128666356205940247 0.243523687124252319 0.100848481059074402
-0.125045567750930786 0.115452393889427185 -0.0431491956114768982
-0.0980661660432815552 0.142844840884208679 -0.00740332109853625298
0.562317848205566406 -0.13269495964050293 -0.112685069441795349
-0.117173604667186737 0.150702282786369324 -0.0103026377037167549
0.185778751969337463 -0.235367968678474426 -0.385895431041717529
-0.197331637144088745 -0.0902100503444671631 -0.292709589004516602
0.0656435266137123108 -0.222040027379989624 -0.390517741441726685
-0.345035642385482788 -0.189900189638137817 0.25401797890663147
-0.196324437856674194 0.0504195652902126312 -0.133706316351890564
0.513117194175720215 -0.245435029268264771 -0.226711258292198181
-0.0892126560211181641 0.155680716037750244 -0.000504997908137738705
0.357852309942245483 -0.266918212175369263 -0.346187323331832886
0.414832860231399536 -0.269453585147857666 -0.301105320453643799
-0.159318104386329651 -0.182108327746391296 -0.330671221017837524
-0.169383570551872253 -0.109514147043228149 -0.3026714026927948
-0.131452798843383789 0.110382869839668274 -0.0682898908853530884
-0.212077736854553223 0.0864630267024040222 -0.105656243860721588
-0.205544933676719666 0.171871185302734375 0.0981010571122169495
-0.201404377818107605 -0.0519350655376911163 -0.236219719052314758
-0.204180657863616943 -0.0453084185719490051 -0.22273080050945282
-0.15581338107585907 0.243862330913543701 0.141598358750343323
-0.344468653202056885 -0.159278020262718201 0.234617099165916443
-0.21478252112865448 -0.0194887630641460419 -0.232445240020751953
-0.302004992961883545 -0.109146483242511749 0.181985259056091309
-0.169063881039619446 -0.130261257290840149 -0.300753802061080933
0.00114528997801244259 -0.214265227317810059 -0.380236327648162842
-0.0915596410632133484 0.145483329892158508 -0.036214098334312439
0.0585823729634284973 -0.222143277525901794 -0.389386177062988281
0.0363905057311058044 -0.222612231969833374 -0.394598066806793213
-0.197109922766685486 0.010119863785803318 -0.199287071824073792
-0.11610528826713562 0.231550320982933044 0.0770802721381187439
0.374314278364181519 -0.254517585039138794 -0.352071851491928101
0.526090919971466064 -0.224917903542518616 -0.201370656490325928
0.511585831642150879 -0.241998448967933655 -0.259296685457229614
-0.191890731453895569 -0.0419821329414844513 -0.253086507320404053
0.508631348609924316 -0.255485683679580688 -0.266364872455596924
0.609262228012084961 -0.140385478734970093 -0.108099885284900665
-0.178435876965522766 -0.0916710272431373596 -0.278472036123275757
-0.0873786658048629761 -0.230054602026939392 -0.350101292133331299
-0.268292725086212158 -0.0317012667655944824 0.0823638811707496643
-0.0985784605145454407 0.170285046100616455 -0.00352469854988157749
-0.125983148813247681 0.111381851136684418 -0.0492489412426948547
0.539224624633789062 -0.198883071541786194 -0.189360231161117554
-0.332628101110458374 -0.152607142925262451 0.224244341254234314
-0.302108585834503174 -0.0935316532850265503 0.154860898852348328
-0.08487720787525177 -0.231738999485969543 -0.36863437294960022
-0.304962724447250366 -0.0930014848709106445 0.156895622611045837
0.557903409004211426 -0.201595023274421692 -0.16286197304725647
0.508283138275146484 -0.264536857604980469 -0.248584955930709839
-0.249680474400520325 -0.0112045025452971458 0.0651132538914680481
0.50119626522064209 -0.227078899741172791 -0.270666122436523438
-0.319779187440872192 -0.106572411954402924 0.202983736991882324
-0.170145303010940552 -0.116931058466434479 -0.312570065259933472
-0.273420780897140503 -0.0663035362958908081 0.086324058473110199
0.571006655693054199 -0.227813646197319031 -0.214764297008514404
0.504996776580810547 -0.237457215785980225 -0.266021132469177246
0.291503220796585083 -0.245340883731842041 -0.363151818513870239
-0.193919375538825989 -0.0193542502820491791 -0.2376994788646698
-0.00711254123598337173 -0.242040961980819702 -0.383042991161346436
-0.00542091904208064079 -0.237939447164535522 -0.37163245677947998
0.563915908336639404 -0.194598451256752014 -0.152262091636657715
0.243094712495803833 -0.245732143521308899 -0.34784311056137085
0.225803866982460022 -0.253663748502731323 -0.379433333873748779
0.26996728777885437 -0.261766493320465088 -0.365590900182723999
-0.329950928688049316 -0.140561237931251526 0.231255188584327698
-0.232714876532554626 0.0773817002773284912 -0.0998881012201309204
-0.169192895293235779 -0.123994871973991394 -0.317453920841217041
-0.320658981800079346 -0.0960826203227043152 0.170773163437843323
0.562113940715789795 -0.144454821944236755 -0.138551905751228333
-0.127204537391662598 0.146421849727630615 0.0230845101177692413
-0.113490916788578033 -0.206736117601394653 -0.337511628866195679
-0.257778197526931763 0.0267102774232625961 0.0515251792967319489
-0.0982239618897438049 -0.203167557716369629 -0.348842531442642212
-0.159316807985305786 0.0974855124950408936 -0.057890329509973526
-0.113444440066814423 0.137222066521644592 -0.0251690912991762161
-0.181498259305953979 -0.0504236109554767609 -0.247621119022369385
0.108880244195461273 -0.231315046548843384 -0.373948246240615845
-0.147041544318199158 0.179864406585693359 0.0473492182791233063
-0.214134693145751953 -0.0827466621994972229 -0.271137267351150513
0.397263318300247192 -0.257516920566558838 -0.354027926921844482
-0.244870245456695557 0.0471140854060649872 0.0143532762303948402
0.4950217604637146 -0.229777395725250244 -0.267733007669448853
-0.138315364718437195 0.184706076979637146 0.0484889596700668335
-0.249518692493438721 -0.0170816108584403992 0.0658356770873069763
-0.154760852456092834 -0.159691572189331055 -0.343668997287750244
-0.196816042065620422 0.173742428421974182 0.0945126563310623169
-0.231219053268432617 -0.0707028657197952271 -0.242503061890602112
-0.178265005350112915 -0.0832393467426300049 -0.269357621669769287
-0.138185068964958191 0.175413325428962708 0.05210161954164505
0.606956243515014648 -0.148068621754646301 -0.10929272323846817
-0.232337236404418945 0.0473012328147888184 -0.133801877498626709
-0.128700897097587585 -0.178830474615097046 -0.344251424074172974
-0.186855331063270569 -0.0637952014803886414 -0.263505727052688599
-0.214120820164680481 -0.101399406790733337 -0.283074229955673218
0.599313676357269287 -0.129192143678665161 -0.126833528280258179
0.346819370985031128 -0.248961716890335083 -0.35949668288230896
0.563926517963409424 -0.24166908860206604 -0.214791342616081238
0.49380195140838623 -0.22177375853061676 -0.257383853197097778
-0.146921217441558838 0.121637634932994843 -0.0555632561445236206
0.181788131594657898 -0.230191946029663086 -0.380052775144577026
-0.232856854796409607 0.0661803334951400757 -0.118440888822078705
-0.355735898017883301 -0.192938253283500671 0.277650833129882812
-0.148157551884651184 0.238619565963745117 0.128464624285697937
-0.225739389657974243 0.06536121666431427 -0.130827993154525757
-0.169551551342010498 0.184529408812522888 0.0801035091280937195
-0.185780733823776245 -0.021334940567612648 -0.229356378316879272
-0.23172113299369812 0.041077636182308197 -0.136069566011428833
0.550125718116760254 -0.234525859355926514 -0.23706507682800293
0.456772178411483765 -0.255307525396347046 -0.307531148195266724
0.533042371273040771 -0.231236591935157776 -0.19201582670211792
-0.366582274436950684 -0.192869842052459717 0.295362263917922974
0.538737356662750244 -0.25819551944732666 -0.250566720962524414
0.313566237688064575 -0.2453126460313797 -0.353885799646377563
0.0739874988794326782 -0.229256570339202881 -0.368388563394546509
-0.196448072791099548 -0.0686895027756690979 -0.248584270477294922
-0.204290911555290222 0.0712604373693466187 -0.128596365451812744
-0.222112506628036499 0.0761867687106132507 -0.116901226341724396
-0.151510521769523621 0.239695161581039429 0.1311827152967453
-0.226727873086929321 0.0517880246043205261 -0.0121465194970369339
-0.151745140552520752 0.110164470970630646 -0.0743689984083175659
-0.214494526386260986 -0.0890908017754554749 -0.277180522680282593
-0.216860592365264893 0.0730917006731033325 -0.125380158424377441
-0.206954613327980042 -0.124061599373817444 -0.299910366535186768
-0.133379131555557251 0.125276029109954834 -0.0626139715313911438
0.589978456497192383 -0.15077526867389679 -0.150306254625320435
-0.179601207375526428 -0.167234942317008972 -0.323409855365753174
-0.224782124161720276 0.0792502760887145996 -0.10121985524892807
0.491056352853775024 -0.246299475431442261 -0.260442793369293213
0.396456032991409302 -0.249200224876403809 -0.311492472887039185
0.0553794652223587036 -0.238094434142112732 -0.390936672687530518
-0.011874789372086525 -0.233993053436279297 -0.381369262933731079
0.470725685358047485 -0.257967650890350342 -0.292269676923751831
-0.302020341157913208 -0.0940200313925743103 0.183420658111572266
0.536930084228515625 -0.222696512937545776 -0.226611942052841187
0.0308171752840280533 -0.238595515489578247 -0.375163048505783081
-0.187230274081230164 -0.0271196160465478897 -0.223388418555259705
0.369644790887832642 -0.268046140670776367 -0.368769407272338867
-0.188399940729141235 0.0826732143759727478 -0.104118712246417999
-0.250191241502761841 -0.0368521660566329956 0.0751416012644767761
-0.337147265672683716 -0.184520527720451355 0.252403467893600464
0.578978955745697021 -0.16682744026184082 -0.12769763171672821
0.59221494197845459 -0.137917548418045044 -0.138332068920135498
-0.242387548089027405 0.0380705893039703369 -0.00269194762222468853
0.563045978546142578 -0.142044395208358765 -0.118936672806739807
0.0359986573457717896 -0.231348663568496704 -0.367247253656387329
0.562870323657989502 -0.149591967463493347 -0.141008526086807251
-0.322659015655517578 -0.114936664700508118 0.207282662391662598
-0.0881512612104415894 0.15398736298084259 -0.00744724785909056664
0.420850843191146851 -0.268975406885147095 -0.306372761726379395
-0.214695021510124207 -0.0919350013136863708 -0.277939558029174805
-0.105308547616004944 0.178260132670402527 -0.0014493035851046443
-0.328627586364746094 -0.137997329235076904 0.218286305665969849
-0.219606608152389526 0.049427621066570282 -0.116406992077827454
-0.259248495101928711 -0.0341361202299594879 0.0767377540469169617
-0.198121994733810425 -0.0139192314818501472 -0.233855903148651123
-0.186853408813476562 -0.0563156604766845703 -0.267130106687545776
-0.0629697367548942566 -0.243488669395446777 -0.372975349426269531
-0.0909455344080924988 0.192946270108222961 0.0322057753801345825
-0.169471055269241333 -0.109462045133113861 -0.301694601774215698
0.534200727939605713 -0.204120337963104248 -0.187714040279388428
0.571543633937835693 -0.125820264220237732 -0.132703244686126709
-0.108426310122013092 -0.192243024706840515 -0.350717455148696899
-0.230225920677185059 0.0714687258005142212 -0.0754635855555534363
-0.103449977934360504 0.177693769335746765 0.00835476536303758621
-0.107568942010402679 0.153872370719909668 -0.0266770943999290466
-0.187873542308807373 -0.0702066496014595032 -0.260007649660110474
0.39223790168762207 -0.265379905700683594 -0.341578572988510132
0.347713172435760498 -0.252529948949813843 -0.348589718341827393
-0.229855582118034363 0.0493267029523849487 -0.0472864918410778046
0.368422985076904297 -0.259543657302856445 -0.318420886993408203
0.0358191430568695068 -0.217360660433769226 -0.371873289346694946
-0.10711350291967392 0.22417055070400238 0.057936646044254303
0.43004608154296875 -0.247965067625045776 -0.32185247540473938
-0.128001004457473755 0.116073809564113617 -0.0612996071577072144
0.499357551336288452 -0.225807651877403259 -0.264644622802734375
0.584399521350860596 -0.209572643041610718 -0.178672730922698975
-0.178026214241981506 0.0747153386473655701 -0.0866824835538864136
-0.195026502013206482 0.0166102368384599686 -0.173229709267616272
-0.223877087235450745 -0.0632878914475440979 -0.260999381542205811
-0.118349730968475342 -0.220010310411453247 -0.360500991344451904
-0.213989377021789551 -0.0948297232389450073 -0.286106586456298828
-0.328793466091156006 -0.131796330213546753 0.224919557571411133
-0.101900234818458557 0.150681689381599426 0.00139520305674523115
0.277156442403793335 -0.241340279579162598 -0.36098751425743103
0.508824408054351807 -0.262819349765777588 -0.239228561520576477
-0.142235979437828064 -0.157383129000663757 -0.326319247484207153
-0.321435540914535522 -0.0928717330098152161 0.170307978987693787
-0.231597155332565308 0.00768340891227126122 -0.192081362009048462
-0.31266060471534729 -0.138284504413604736 0.225607678294181824
-0.155182227492332458 0.18053068220615387 0.0680714845657348633
0.0828784182667732239 -0.23932512104511261 -0.39397132396697998
-0.116481050848960876 -0.20124700665473938 -0.339066535234451294
-0.195994585752487183 0.0356912910938262939 -0.161409527063369751
-0.195382609963417053 0.0419797934591770172 -0.158227980136871338
0.597831964492797852 -0.176198840141296387 -0.148536741733551025
-0.204402774572372437 0.170753151178359985 0.113780409097671509
-0.285711705684661865 -0.0833306387066841125 0.112820811569690704
-0.169610202312469482 0.183554992079734802 0.0687049701809883118
0.45314595103263855 -0.23356020450592041 -0.285941511392593384
0.548499226570129395 -0.245583564043045044 -0.247741103172302246
0.513820827007293701 -0.265202701091766357 -0.259785652160644531
-0.172805711627006531 -0.168504014611244202 -0.339331865310668945
-0.128090113401412964 -0.188241273164749146 -0.331003099679946899
0.534759998321533203 -0.224623098969459534 -0.232405662536621094
-0.203693002462387085 0.00641964701935648918 -0.207800820469856262
0.508543729782104492 -0.259559780359268188 -0.263526886701583862
-0.0139735303819179535 -0.227113008499145508 -0.3721504807472229
-0.0182961821556091309 -0.239228233695030212 -0.383841276168823242
-0.157331451773643494 -0.148084700107574463 -0.329711675643920898
-0.0992629304528236389 0.22713056206703186 0.0693392455577850342
0.503299236297607422 -0.238678663969039917 -0.250587433576583862
-0.223343104124069214 -0.0261636581271886826 -0.23752102255821228
-0.191090941429138184 0.0725882649421691895 -0.0966016501188278198
-0.242316588759422302 0.0460961535573005676 0.0141989598050713539
0.158154010772705078 -0.239660501480102539 -0.384082257747650146
0.360176384449005127 -0.246194913983345032 -0.338347882032394409
-0.197074636816978455 0.0623055361211299896 -0.132025495171546936
0.597635209560394287 -0.174616023898124695 -0.154368013143539429
0.211721047759056091 -0.235567435622215271 -0.377019584178924561
0.375553011894226074 -0.257719427347183228 -0.353125303983688354
-0.117118455469608307 -0.217410564422607422 -0.366974085569381714
-0.232739612460136414 0.0249202046543359756 -0.172920092940330505
-0.188860386610031128 -0.0186186749488115311 -0.225940316915512085
0.571219563484191895 -0.220868244767189026 -0.214113935828208923
0.20503687858581543 -0.254613608121871948 -0.355273127555847168
-0.303206652402877808 -0.0998126119375228882 0.179688170552253723
-0.325430542230606079 -0.142856508493423462 0.2302284836769104
0.143530562520027161 -0.23897986114025116 -0.362840265035629272
-0.219814226031303406 0.0828628316521644592 -0.112040586769580841
-0.226006031036376953 0.0661711245775222778 -0.0982065647840499878
-0.0145525112748146057 -0.227428257465362549 -0.374726384878158569
-0.129288569092750549 0.117253601551055908 -0.0616730079054832458
-0.141247555613517761 0.183191224932670593 0.0598346330225467682
-0.174055173993110657 0.0926232263445854187 -0.0653515458106994629
0.375378847122192383 -0.264085620641708374 -0.36032944917678833
-0.188703238964080811 0.0996747389435768127 -0.0784432515501976013
-0.234260708093643188 0.0600756779313087463 -0.0278563834726810455
-0.274217396974563599 -0.0849848687648773193 0.103878796100616455
-0.00757591985166072845 -0.249094411730766296 -0.379638880491256714
-0.339303165674209595 -0.180624723434448242 0.2385396808385849
-0.16231323778629303 -0.167690634727478027 -0.348829150199890137
-0.355401992797851562 -0.184222549200057983 0.29018932580947876
-0.340111464262008667 -0.152210921049118042 0.227527976036071777
-0.159557461738586426 -0.18484613299369812 -0.342910319566726685
0.224776670336723328 -0.262767761945724487 -0.366594821214675903
0.434260070323944092 -0.263538897037506104 -0.31107601523399353
-0.120810806751251221 -0.191322311758995056 -0.358374685049057007
0.370478272438049316 -0.245369076728820801 -0.340296179056167603
-0.343621641397476196 -0.161697655916213989 0.240148380398750305
-0.204195663332939148 -0.111680381000041962 -0.278658688068389893
-0.267395764589309692 0.0252198223024606705 0.0283093545585870743
-0.163915932178497314 0.237540751695632935 0.165354460477828979
-0.226042672991752625 0.071303829550743103 -0.0857125669717788696
-0.104220330715179443 -0.223474025726318359 -0.351644694805145264
-0.262624979019165039 -0.0474757924675941467 0.0853529274463653564
0.53055107593536377 -0.25763624906539917 -0.25902828574180603
-0.203716099262237549 0.0117042046040296555 -0.199999004602432251
-0.258446931838989258 -0.0531043224036693573 0.0843198895454406738
0.448690593242645264 -0.239383220672607422 -0.286107271909713745
-0.189944148063659668 0.17859196662902832 0.0858004540205001831
0.379274100065231323 -0.266973048448562622 -0.316052913665771484
0.596290290355682373 -0.167266815900802612 -0.138034865260124207
0.382533043622970581 -0.257764846086502075 -0.312894314527511597
-0.138242647051811218 0.0987632721662521362 -0.0668072327971458435
-0.200844451785087585 -0.0979737937450408936 -0.296169966459274292
-0.177367925643920898 -0.102343447506427765 -0.278178244829177856
-0.14915899932384491 0.241884484887123108 0.128212019801139832
-0.193874761462211609 -0.0895153358578681946 -0.265074223279953003
0.588215947151184082 -0.127363696694374084 -0.110702559351921082
0.526929557323455811 -0.222644016146659851 -0.204350084066390991
0.334245920181274414 -0.247546926140785217 -0.344911903142929077
0.548408448696136475 -0.25046810507774353 -0.225854963064193726
-0.207749262452125549 -0.0899996161460876465 -0.287657409906387329
-0.121204443275928497 0.114350669085979462 -0.0518305674195289612
0.425781011581420898 -0.256456464529037476 -0.292608737945556641
-0.107608221471309662 0.144515946507453918 0.000683084595948457718
-0.187098130583763123 -0.035248585045337677 -0.241347372531890869
-0.117150075733661652 -0.221735835075378418 -0.368104428052902222
-0.26735299825668335 -0.0213536359369754791 0.0665669292211532593
0.42184332013130188 -0.251477569341659546 -0.332640171051025391
0.548793971538543701 -0.192060798406600952 -0.165288344025611877
-0.195015087723731995 0.0783733054995536804 -0.118979595601558685
-0.306418836116790771 -0.115376956760883331 0.193387731909751892
0.0184159837663173676 -0.240560278296470642 -0.376878559589385986
0.5990028977394104 -0.182370871305465698 -0.162854790687561035
0.445464760065078735 -0.26300346851348877 -0.302251875400543213
-0.236430048942565918 0.0539111979305744171 -0.00807423051446676254
-0.24998299777507782 0.033578868955373764 0.0254365727305412292
-0.108871497213840485 0.127305671572685242 -0.0495459847152233124
0.500325977802276611 -0.24348236620426178 -0.276684939861297607
-0.221669971942901611 0.159717991948127747 0.134066373109817505
0.35361674427986145 -0.266330987215042114 -0.33261534571647644
0.308205693960189819 -0.269647091627120972 -0.347490489482879639
0.53619849681854248 -0.222297251224517822 -0.230183824896812439
-0.232779756188392639 0.0526401624083518982 -0.129624143242835999
-0.168789297342300415 0.174673095345497131 0.0710230469703674316
0.56244736909866333 -0.169125825166702271 -0.134703785181045532
0.380194574594497681 -0.272050529718399048 -0.327075362205505371
-0.320895850658416748 -0.109286308288574219 0.204114720225334167
-0.360328018665313721 -0.18394644558429718 0.298946529626846313
-0.0643026158213615417 -0.240876376628875732 -0.367244482040405273
-0.295402854681015015 -0.098101593554019928 0.145703956484794617
0.589844465255737305 -0.120061479508876801 -0.126962974667549133
0.500130414962768555 -0.239868879318237305 -0.279204487800598145
-0.250284045934677124 0.0161633007228374481 0.0403984673321247101
0.285798102617263794 -0.24561309814453125 -0.372274935245513916
0.12905004620552063 -0.224763467907905579 -0.381332427263259888
-0.197317644953727722 0.0686803236603736877 -0.128950700163841248
-0.143484681844711304 -0.156024068593978882 -0.331029593944549561
-0.330887675285339355 -0.121800161898136139 0.222079068422317505
0.238758683204650879 -0.249727904796600342 -0.378720134496688843
0.589874744415283203 -0.118227414786815643 -0.122850924730300903
-0.195391148328781128 0.0286617670208215714 -0.184855222702026367
-0.232608184218406677 -0.072722315788269043 -0.243463486433029175
0.394017875194549561 -0.258334755897521973 -0.35222160816192627
0.584854006767272949 -0.134161472320556641 -0.104335062205791473
-0.312122732400894165 -0.101517036557197571 0.138372823596000671
0.562228739261627197 -0.133849263191223145 -0.119486384093761444
-0.107552044093608856 0.22276739776134491 0.0574581772089004517
-0.267590165138244629 -0.00542475143447518349 0.072943471372127533
-0.251688092947006226 -0.015225178562104702 0.0718676522374153137
-0.250074446201324463 0.00415098713710904121 0.054052308201789856
-0.111457407474517822 0.224687114357948303 0.0640201494097709656
0.0610904395580291748 -0.241553962230682373 -0.371407061815261841
0.135713383555412292 -0.241034328937530518 -0.362803339958190918
-0.249541103839874268 -0.03588886559009552 0.0757241249084472656
0.55344688892364502 -0.187264695763587952 -0.163924992084503174
0.582865536212921143 -0.148696452379226685 -0.148566663265228271
-0.116999946534633636 0.145224601030349731 -0.0200744159519672394
0.581814706325531006 -0.194936826825141907 -0.188068345189094543
0.362780928611755371 -0.245513394474983215 -0.346001565456390381
0.0923657789826393127 -0.22239413857460022 -0.386304408311843872
0.390196651220321655 -0.259742677211761475 -0.348969161510467529
-0.249879598617553711 0.0235969237983226776 0.0455025024712085724
0.241446241736412048 -0.244682624936103821 -0.378802210092544556
-0.232836291193962097 0.026323024183511734 -0.170246437191963196
-0.0927698835730552673 -0.201348945498466492 -0.355138838291168213
-0.164243653416633606 -0.143384426832199097 -0.331107378005981445
-0.176531344652175903 -0.0541500784456729889 -0.248111054301261902
-0.220120072364807129 0.0243359450250864029 -0.149417504668235779
-0.11825985461473465 0.142888903617858887 -0.0309785101562738419
-0.198568597435951233 0.00527167040854692459 -0.202318117022514343
0.355701416730880737 -0.270251810550689697 -0.342690408229827881
