ply
format ascii 1.0
element vertex 751
comment vertices
property float x
property float y
property float z
end_header
-1.18513906002044678 0.906171023845672607 -2.30719542503356934
-0.854946613311767578 -2.19540524482727051 0.408016383647918701
1.32654249668121338 -0.719999909400939941 -1.09319901466369629
-0.113181307911872864 0.351516455411911011 -0.439218014478683472
2.08430051803588867 -0.791257023811340332 -0.241703927516937256
-0.534295916557312012 -0.834539890289306641 0.617061138153076172
0.305399298667907715 0.956255257129669189 0.0433559417724609375
0.739290714263916016 -0.295629143714904785 0.630315423011779785
0.11568036675453186 0.0615948140621185303 -0.78619009256362915
-0.260193824768066406 -1.4328453540802002 -0.479603707790374756
-1.68619942665100098 -0.4788474440574646 -0.455395221710205078
0.43278038501739502 -0.449468344449996948 -1.14033651351928711
-0.916922271251678467 1.02141010761260986 1.98414671421051025
-0.932061553001403809 1.32088851928710938 -0.325810670852661133
-1.82887780666351318 -0.0208998844027519226 0.69658273458480835
1.3585360050201416 -0.135855510830879211 -0.17778506875038147
-2.26462244987487793 -3.53400111198425293 -0.0444370396435260773
-0.729528963565826416 -0.00894442200660705566 -0.464761495590209961
0.623732447624206543 -1.23145425319671631 -0.599055886268615723
0.520913779735565186 0.511240541934967041 0.419688642024993896
-1.88337767124176025 -0.998344779014587402 -0.771867930889129639
0.505598485469818115 -0.118232220411300659 -0.886804521083831787
0.503646314144134521 -0.466744333505630493 -0.778678238391876221
0.0253769829869270325 0.720105886459350586 -1.37422740459442139
0.0892065614461898804 0.795884251594543457 -1.2629704475402832
-1.61072850227355957 0.0650857016444206238 1.39204263687133789
0.491111993789672852 0.722888708114624023 0.067666858434677124
0.58130943775177002 -0.114002563059329987 0.151037812232971191
-0.890493154525756836 -0.582002520561218262 -0.652021110057830811
1.24353337287902832 -0.315778136253356934 0.495561987161636353
0.443931132555007935 -1.07010495662689209 -0.00158517807722091675
1.89766013622283936 -0.251972079277038574 0.340890735387802124
0.972753405570983887 1.81850171089172363 -0.397526681423187256
-0.433078020811080933 1.72948133945465088 -0.255813688039779663
-0.909912705421447754 -0.0944078266620635986 -0.17627677321434021
-2.33075881004333496 -0.549020767211914062 0.772644996643066406
0.75265800952911377 1.86934542655944824 -2.54131317138671875
-1.14064121246337891 -1.70164322853088379 -0.488511919975280762
-0.488599389791488647 0.262495189905166626 -0.537441134452819824
0.866887092590332031 0.0813526958227157593 -0.0187976285815238953
-0.640962958335876465 -0.109884597361087799 0.339732617139816284
-0.344256550073623657 0.88827592134475708 1.10943758487701416
0.915117979049682617 -1.86093628406524658 -0.623064279556274414
1.65044856071472168 -0.102792374789714813 0.180539116263389587
2.0813910961151123 0.758218586444854736 -0.158699691295623779
1.03547894954681396 -0.857075095176696777 1.58004844188690186
0.328613638877868652 0.129109606146812439 -1.30236899852752686
-0.550870120525360107 -0.594298481941223145 0.0676683485507965088
-1.39682865142822266 -1.23271751403808594 0.50878530740737915
-0.0875066444277763367 -0.169928401708602905 -0.154542818665504456
-0.756612658500671387 0.0579526498913764954 -1.8342893123626709
-0.723024666309356689 1.00942349433898926 -0.189684569835662842
0.743483185768127441 -1.76379585266113281 -1.185028076171875
1.75080728530883789 -1.4484628438949585 -0.0237625613808631897
-0.119050711393356323 0.692787885665893555 -0.117346182465553284
1.35662746429443359 2.31466054916381836 0.0245349258184432983
0.104830309748649597 -0.219212859869003296 -1.18428218364715576
0.129018694162368774 -0.122645258903503418 0.98666679859161377
-1.07146739959716797 -0.906707823276519775 -1.6262584924697876
0.48886561393737793 0.252333074808120728 1.12899088859558105
1.02273428440093994 0.24495050311088562 -0.992707788944244385
1.30526447296142578 -0.0329921320080757141 -0.257812321186065674
-0.963814735412597656 -0.113261587917804718 0.81451946496963501
-0.299374938011169434 0.919492125511169434 0.616751015186309814
2.66360735893249512 2.48406744003295898 1.08659374713897705
0.404240548610687256 0.0450406447052955627 0.657252669334411621
1.05762314796447754 -0.0880750939249992371 0.334444910287857056
-0.708585858345031738 -1.75872683525085449 -0.144731134176254272
0.0987044572830200195 0.148016363382339478 -0.329974323511123657
-0.378887653350830078 0.846926212310791016 -0.0346243977546691895
1.7720494270324707 0.489111125469207764 -0.28929409384727478
-0.148593217134475708 -0.422141313552856445 1.45399892330169678
0.0403320752084255219 -2.26934027671813965 -0.906639933586120605
0.444994688034057617 -0.100988060235977173 0.90100628137588501
0.330098599195480347 0.0757242441177368164 0.460750490427017212
-0.606863141059875488 -1.2951962947845459 -1.0891573429107666
-0.907573938369750977 1.2425835132598877 1.02230155467987061
0.141800239682197571 -0.908420443534851074 0.0702560022473335266
-0.930725634098052979 -0.200889408588409424 -0.770449519157409668
0.385382533073425293 0.981408834457397461 -1.17747342586517334
-0.130062490701675415 1.536704421043396 -1.11507666110992432
-0.750710427761077881 -0.106230966746807098 -0.395858734846115112
0.131505981087684631 -0.37145426869392395 1.41159343719482422
-3.31616568565368652 1.27962148189544678 0.635763645172119141
1.02262115478515625 1.14018881320953369 0.994794249534606934
-1.24692988395690918 -1.98410391807556152 0.786963701248168945
0.348872661590576172 -0.0797301605343818665 -0.317054539918899536
-2.3954312801361084 -0.259599983692169189 -1.55504751205444336
1.68006026744842529 2.2424471378326416 -0.416610300540924072
0.130185097455978394 -1.1156609058380127 -1.58622872829437256
0.338489025831222534 -1.04804027080535889 1.3257746696472168
1.16682183742523193 0.0156693384051322937 0.0649491250514984131
1.90886604785919189 -0.498330980539321899 -0.219256222248077393
0.142473801970481873 0.329993605613708496 -0.403497129678726196
0.213820382952690125 0.351016730070114136 -0.235871493816375732
-0.948573827743530273 -1.30908668041229248 0.751518964767456055
-0.0583620592951774597 -0.632157444953918457 -0.707192599773406982
0.269292593002319336 -0.856509983539581299 -1.03523194789886475
-1.64810192584991455 -1.60922861099243164 0.125065773725509644
-0.709924519062042236 -0.763156771659851074 0.0106746256351470947
1.03068268299102783 2.03392624855041504 0.285105794668197632
0.107476726174354553 0.555654287338256836 -1.69286870956420898
-0.516347348690032959 0.0992125645279884338 -0.420448392629623413
0.331533819437026978 -0.283923804759979248 0.21150815486907959
-0.216421812772750854 -1.33480525016784668 -0.132942885160446167
0.986382722854614258 -1.81594443321228027 -0.197140544652938843
0.0899202972650527954 0.0598743483424186707 -1.28691589832305908
1.00386559963226318 -0.113186143338680267 -0.450394779443740845
-1.29566466808319092 -0.360311567783355713 -0.845699191093444824
0.402726024389266968 1.42835879325866699 0.0386619791388511658
0.403210073709487915 0.498077094554901123 0.0263352170586585999
0.537392914295196533 0.396514236927032471 0.904479920864105225
0.0794890746474266052 0.331360757350921631 -0.715977191925048828
-0.00124675780534744263 -0.815227210521697998 0.304409116506576538
0.0247064977884292603 -0.0292055383324623108 1.0055922269821167
-0.235964924097061157 1.22308683395385742 -0.510334670543670654
0.326005488634109497 1.94761562347412109 3.33977699279785156
-2.37069845199584961 0.439338326454162598 -0.108522355556488037
0.369605034589767456 1.16516470909118652 -0.625252246856689453
-0.331567496061325073 0.779386579990386963 -2.00141119956970215
0.655135154724121094 0.544708311557769775 0.847142815589904785
0.0715525448322296143 -0.992499291896820068 2.11542797088623047
-0.526719570159912109 -0.770898342132568359 0.992628693580627441
-0.180036082863807678 0.101346991956233978 1.89542675018310547
-0.242259383201599121 -0.228161633014678955 -0.280715316534042358
0.318279087543487549 -0.601656079292297363 -1.91499626636505127
-0.351312816143035889 1.6688072681427002 -0.641856253147125244
-1.56282329559326172 -0.0417600423097610474 0.0142989382147789001
-1.13926684856414795 -0.68735194206237793 0.0199613124132156372
-1.23140573501586914 -0.0467247515916824341 0.749669909477233887
-0.189853757619857788 -0.12503381073474884 1.2341686487197876
0.849936962127685547 -0.189425602555274963 -0.989907622337341309
-1.32700037956237793 -0.609034538269042969 0.671254217624664307
0.570539355278015137 -0.756106853485107422 0.833198964595794678
-1.58312094211578369 0.173229098320007324 -0.951478183269500732
0.776622474193572998 -0.0663246959447860718 -0.502454996109008789
1.70486927032470703 0.317399024963378906 -0.966927766799926758
-0.102521426975727081 -0.0322086364030838013 -0.453201353549957275
0.860423922538757324 -0.60715949535369873 1.68268191814422607
-0.356328397989273071 -1.98559832572937012 1.42172825336456299
-0.7167014479637146 1.75804460048675537 -0.42857062816619873
0.163129031658172607 0.0312000066041946411 -0.120884358882904053
0.88335806131362915 -0.584980487823486328 0.873383283615112305
-0.673467040061950684 -1.76532161235809326 -1.0075685977935791
0.424907952547073364 -0.163904935121536255 0.667612612247467041
0.234140336513519287 -0.232873767614364624 0.00521875917911529541
-1.13208997249603271 1.20811009407043457 -0.311017394065856934
-1.19466090202331543 0.177415430545806885 1.27490758895874023
0.628512978553771973 -1.28200638294219971 0.11184045672416687
0.575457274913787842 0.620819091796875 0.580919265747070312
-1.11034178733825684 -2.07339835166931152 -0.266007900238037109
0.47211003303527832 0.395393997430801392 -0.232224583625793457
-0.723100602626800537 -0.701368868350982666 0.114075295627117157
0.328786194324493408 -0.209702253341674805 -0.589176535606384277
0.0518555566668510437 -1.19382107257843018 -1.72463393211364746
-0.0198558270931243896 -0.488527774810791016 0.538027942180633545
-0.722464859485626221 0.548157930374145508 -0.830420136451721191
0.721169769763946533 1.2583763599395752 -0.727169811725616455
0.592333853244781494 0.919007241725921631 -0.469196736812591553
-0.129919767379760742 -0.307344198226928711 0.0943380221724510193
0.547943711280822754 -0.546785235404968262 -0.102349124848842621
-1.16346931457519531 -0.610076606273651123 0.190008938312530518
0.467299461364746094 1.08486342430114746 0.940856814384460449
0.912308335304260254 1.755104660987854 -0.330165266990661621
-0.560469150543212891 -1.27533900737762451 0.270222723484039307
0.0838531851768493652 0.833282887935638428 -0.734085202217102051
0.342468291521072388 0.616617977619171143 0.662710309028625488
0.216121405363082886 -0.273119717836380005 0.994678258895874023
0.595603704452514648 -0.132666736841201782 -0.754490852355957031
0.0926826074719429016 -0.189779981970787048 -0.341523438692092896
0.337957978248596191 -0.484219938516616821 0.487051963806152344
0.292030185461044312 -2.03245902061462402 0.600224494934082031
0.152588129043579102 1.32178211212158203 1.41920304298400879
0.332315802574157715 1.07584381103515625 -0.162230774760246277
-0.608980417251586914 1.38183021545410156 -1.96160197257995605
-1.76343190670013428 -0.539879322052001953 -0.118623644113540649
0.796564400196075439 0.401605188846588135 -0.468648910522460938
0.0418294966220855713 0.945042550563812256 -1.03042137622833252
0.0684322640299797058 -0.898786425590515137 0.0717829763889312744
0.856972038745880127 1.77760851383209229 -1.29085648059844971
-1.30947208404541016 -0.324626624584197998 0.423819392919540405
0.466729879379272461 0.843591690063476562 2.32352590560913086
0.190762072801589966 -0.163727119565010071 1.03416776657104492
-0.291135966777801514 0.407887190580368042 0.821681499481201172
-0.427592486143112183 1.30158448219299316 0.208764806389808655
0.554738283157348633 -0.456045567989349365 0.158303678035736084
1.429221510887146 -1.08467316627502441 -0.277583003044128418
-0.57434457540512085 -0.0728380382061004639 -0.924293458461761475
-0.178240358829498291 -0.39580535888671875 0.845992922782897949
-0.642234563827514648 -0.0449526384472846985 0.371522665023803711
-0.176698923110961914 -1.36115312576293945 0.67698371410369873
-0.801509380340576172 0.331476360559463501 -0.308112025260925293
0.00114746391773223877 0.31040722131729126 -1.26965188980102539
0.962147057056427002 0.722752630710601807 1.01334130764007568
0.483012646436691284 0.314306676387786865 1.99725937843322754
-0.233171463012695312 0.0710349231958389282 1.72454524040222168
0.956131696701049805 0.45380854606628418 -0.625608265399932861
-1.39682292938232422 0.769065916538238525 -0.51442253589630127
-1.42694509029388428 0.140476018190383911 -0.749485194683074951
1.79307007789611816 0.243871375918388367 -0.518372297286987305
-0.0556566342711448669 -1.3672175407409668 -1.3679732084274292
-0.21881529688835144 -0.180253565311431885 0.306804239749908447
0.253267675638198853 0.414188027381896973 0.28673890233039856
-0.481740355491638184 -0.00969610363245010376 0.0685884952545166016
0.00763672590255737305 1.00743722915649414 -0.218996644020080566
0.69129478931427002 0.731834053993225098 0.585357308387756348
1.10380375385284424 -0.529606103897094727 0.0482652783393859863
-1.95186102390289307 -0.453525900840759277 -0.366347968578338623
0.532737374305725098 0.401952475309371948 0.212622657418251038
-1.84877097606658936 -0.130443349480628967 -0.783938467502593994
1.18130958080291748 -1.96749627590179443 -0.385342150926589966
-1.0566868782043457 -0.139963522553443909 -0.487055540084838867
0.502950489521026611 -0.0411185324192047119 0.392408132553100586
0.581246256828308105 -1.69553852081298828 -0.0814231038093566895
0.419494390487670898 0.391994833946228027 0.796534955501556396
0.0570215210318565369 -0.109971612691879272 -1.0751110315322876
0.472612529993057251 -0.0510632172226905823 1.25979769229888916
2.13769006729125977 0.0313383862376213074 0.885061383247375488
-0.971427738666534424 -0.0700298547744750977 1.2095942497253418
0.702102601528167725 -0.204206779599189758 -0.226879015564918518
0.528872191905975342 1.41305947303771973 -0.477911770343780518
1.2600637674331665 2.28457832336425781 -1.39308595657348633
1.10018002986907959 0.706815838813781738 -0.0721075087785720825
-0.772601604461669922 -0.0705019459128379822 1.59448003768920898
0.445988893508911133 -0.0361012741923332214 0.330430418252944946
1.75506937503814697 -0.278907150030136108 1.24793541431427002
-2.2158207893371582 0.528860390186309814 0.550449550151824951
1.11745977401733398 1.0122523307800293 -0.554485499858856201
0.967002034187316895 -0.89455878734588623 -1.60786020755767822
-1.51010727882385254 0.617457687854766846 -1.75726997852325439
0.165327936410903931 1.41632568836212158 0.358658492565155029
-0.909782707691192627 1.64582180976867676 2.12665867805480957
-0.0680306181311607361 -0.0624814853072166443 -0.519257485866546631
-0.160549357533454895 -0.152861237525939941 -0.0781856775283813477
0.84805452823638916 -0.101882107555866241 -0.301146179437637329
0.753267586231231689 -1.17640233039855957 -0.418359071016311646
-0.399353742599487305 0.781494379043579102 0.941835999488830566
-0.743534386157989502 -1.38565003871917725 -0.473338723182678223
0.0228600278496742249 -1.62071990966796875 1.50387275218963623
1.26893377304077148 -1.99618935585021973 -0.4994221031665802
1.65622818470001221 -0.04844675213098526 1.31081819534301758
0.721763193607330322 0.692464470863342285 -0.453020334243774414
0.197146207094192505 -1.61627030372619629 -0.994905591011047363
-1.21399271488189697 0.118817061185836792 1.2252432107925415
-1.1091461181640625 1.34828341007232666 -0.55376666784286499
0.222578495740890503 0.976848125457763672 0.610187888145446777
1.40072107315063477 -0.161111295223236084 -1.56217432022094727
-0.379080325365066528 2.27092623710632324 0.351531386375427246
-0.0893593505024909973 1.54262149333953857 -0.0957781225442886353
0.468942195177078247 -1.10380518436431885 0.458731293678283691
0.151674047112464905 -1.23685288429260254 -0.440575480461120605
-1.10458159446716309 -1.02476131916046143 -0.455025404691696167
0.193382978439331055 -0.436238497495651245 0.234771460294723511
1.1910940408706665 -1.23804545402526855 0.677513778209686279
0.631084799766540527 1.55512332916259766 0.340653419494628906
-0.541780352592468262 -0.11408068984746933 -1.27166295051574707
-0.797903597354888916 0.71610105037689209 1.60706031322479248
-0.39616858959197998 -0.483718663454055786 -0.0969571918249130249
-0.75449901819229126 0.921083807945251465 -0.302429080009460449
0.563536465167999268 1.36908137798309326 -0.146120011806488037
0.362259507179260254 -1.31829750537872314 -0.546740114688873291
-1.4503854513168335 -0.0913945361971855164 -0.187678545713424683
-1.46671509742736816 -1.97642254829406738 0.742210328578948975
1.03535664081573486 -0.941373944282531738 0.0937210097908973694
0.172261133790016174 0.540849089622497559 1.04708242416381836
-0.397447019815444946 1.16106748580932617 -0.466533243656158447
-0.330568611621856689 0.56241995096206665 -0.0699556618928909302
0.417948603630065918 -0.614344179630279541 0.609558820724487305
-0.461556911468505859 1.80856609344482422 -0.614916503429412842
-1.44183015823364258 -0.00824948400259017944 -0.970261693000793457
0.914805710315704346 0.497663676738739014 -0.830529212951660156
0.502042710781097412 1.94625246524810791 0.163091182708740234
0.0589113011956214905 0.238060146570205688 -0.637747824192047119
-0.917042732238769531 0.870378255844116211 0.301381766796112061
0.0679907873272895813 -0.160587877035140991 -0.54622495174407959
0.150205492973327637 -0.816700875759124756 -0.437631696462631226
-1.65926122665405273 -0.646254241466522217 -0.450990557670593262
-0.585762202739715576 -0.151709944009780884 0.458292901515960693
0.0709134712815284729 -1.19254577159881592 -1.18314945697784424
0.557663381099700928 0.27154541015625 0.266610771417617798
0.38207554817199707 -0.0418750159442424774 0.210671171545982361
-0.376102626323699951 0.787513613700866699 0.560665667057037354
0.317691057920455933 0.656067967414855957 -0.126041978597640991
-0.938445568084716797 -0.461022078990936279 -0.446022778749465942
-0.985871553421020508 0.0771729275584220886 0.521208047866821289
-0.480519533157348633 -0.261262863874435425 -0.6276131272315979
1.06917965412139893 1.31563711166381836 1.0259774923324585
-0.522640109062194824 -0.00731905549764633179 0.786453783512115479
1.59057533740997314 -2.22753238677978516 0.231999963521957397
0.157009392976760864 -1.55779051780700684 1.03969740867614746
-0.198349505662918091 -0.153214201331138611 0.809052109718322754
0.0324627384543418884 1.98868644237518311 0.38211938738822937
1.15178930759429932 0.000840477645397186279 -0.137324929237365723
0.797712922096252441 0.454637259244918823 0.673636257648468018
1.16679573059082031 2.10852527618408203 1.70858478546142578
-0.953199088573455811 -0.365074515342712402 0.772683382034301758
0.940582215785980225 -0.776107430458068848 -0.904446542263031006
-2.12122440338134766 -0.401414424180984497 0.0286191999912261963
-1.26528477668762207 -0.773274004459381104 1.54256236553192139
-0.0264690816402435303 0.4535788893699646 0.261164397001266479
0.21412956714630127 -0.0747953802347183228 -0.476523280143737793
-1.06080615520477295 0.525952458381652832 -0.399835944175720215
1.1505126953125 0.599190592765808105 -0.799890697002410889
-1.88318133354187012 0.358114957809448242 -0.600471735000610352
1.86179566383361816 -1.21644353866577148 1.61606979370117188
-0.172813013195991516 1.07756721973419189 -1.41375946998596191
-0.908920586109161377 0.590040981769561768 -0.82983863353729248
-0.586297154426574707 1.12057268619537354 -0.202716946601867676
-1.20701777935028076 0.847019791603088379 -1.21159136295318604
0.108416475355625153 -0.222546175122261047 -0.756792664527893066
1.32731139659881592 0.226854234933853149 0.661130309104919434
-0.289074987173080444 0.67517620325088501 -0.444039374589920044
0.283584654331207275 -1.82897388935089111 -0.317726820707321167
0.72780001163482666 0.154122695326805115 -0.617036283016204834
-1.07111573219299316 -0.468345224857330322 -0.0529685430228710175
0.340471446514129639 0.266964346170425415 0.864526093006134033
-1.42305624485015869 0.858563005924224854 -0.8636627197265625
-0.772632300853729248 -0.234410911798477173 -0.349836230278015137
-0.150237351655960083 -1.08966910839080811 -1.19103407859802246
0.740447759628295898 0.119883455336093903 -0.90501636266708374
1.05830895900726318 -0.504195570945739746 -0.207678377628326416
-1.41296172142028809 -0.607220232486724854 0.487150460481643677
-1.4757537841796875 -0.0392353534698486328 0.227689802646636963
0.144009992480278015 1.90267431735992432 -1.68926084041595459
-0.338965535163879395 0.985098063945770264 -0.70220792293548584
0.644544899463653564 -0.993566215038299561 0.41786491870880127
-1.45401287078857422 0.370968103408813477 0.768712997436523438
0.686426699161529541 -0.689680516719818115 -0.810383260250091553
0.954789519309997559 -0.430204480886459351 -0.185906782746315002
1.24474442005157471 -0.714305758476257324 -0.231566473841667175
0.618241786956787109 0.470648765563964844 0.213097482919692993
0.0191373527050018311 0.0516887083649635315 0.459223568439483643
-0.0103831291198730469 -1.08925020694732666 0.750822126865386963
0.155677586793899536 0.94808506965637207 0.161487340927124023
1.11692440509796143 1.01332056522369385 -0.375355184078216553
-0.00510674715042114258 0.453907608985900879 -1.55815613269805908
-1.56125843524932861 -0.189640343189239502 0.0863039419054985046
0.489616513252258301 0.44298979640007019 -0.472386598587036133
0.942211508750915527 -0.445311695337295532 0.452407956123352051
-0.0345548763871192932 -0.958036661148071289 0.13597482442855835
-1.71769165992736816 -1.75466513633728027 -0.914479076862335205
0.122812606394290924 0.523152172565460205 -1.19502472877502441
-0.239564746618270874 0.302516639232635498 -0.357839643955230713
0.0811717882752418518 -0.930106222629547119 -0.490872383117675781
0.799779891967773438 -1.3877028226852417 0.577639460563659668
0.0338728576898574829 0.457695901393890381 -0.318781584501266479
-1.45890450477600098 0.948073446750640869 -0.460769355297088623
1.6792682409286499 -0.761076688766479492 -1.92756366729736328
-0.797185301780700684 0.228661015629768372 -0.236936450004577637
-0.106632515788078308 0.357719153165817261 -0.00204305350780487061
0.506327211856842041 -1.01979970932006836 -0.390831828117370605
-0.578626632690429688 0.295068532228469849 -0.803742468357086182
0.11331331729888916 -0.0258226767182350159 -0.398518145084381104
2.0272667407989502 -1.20882236957550049 1.58986425399780273
-0.0339369252324104309 0.58423912525177002 -1.72411215305328369
1.58180379867553711 -0.783377230167388916 -1.26694178581237793
0.170864850282669067 0.169247627258300781 -1.57023394107818604
-0.278733134269714355 1.0955575704574585 -0.507038235664367676
-0.135411158204078674 0.0617356076836585999 -0.428329586982727051
-0.509863853454589844 -0.930862188339233398 -1.07541048526763916
-0.727256298065185547 -0.388199478387832642 -0.441911995410919189
-0.945811569690704346 -0.548780620098114014 0.141711801290512085
-1.21152985095977783 -1.62958359718322754 0.312086403369903564
-1.64556753635406494 -0.217379406094551086 0.450350672006607056
0.656200766563415527 0.662163853645324707 0.144991844892501831
1.20575273036956787 -0.714292228221893311 -0.273086100816726685
-1.23303425312042236 1.87543272972106934 1.44590902328491211
-1.08367574214935303 1.62517106533050537 -0.40430864691734314
-0.182111829519271851 0.0116471946239471436 -0.119779519736766815
-0.00194411724805831909 -0.453076273202896118 -0.443241864442825317
1.06731164455413818 -0.470214724540710449 0.670167446136474609
-0.525899291038513184 0.0999723896384239197 -0.134060874581336975
-0.135172128677368164 -0.0428691282868385315 0.17004665732383728
0.613199949264526367 1.64762294292449951 -0.296519458293914795
-1.3351360559463501 -0.270506918430328369 -0.601738333702087402
1.46933090686798096 0.575937569141387939 -0.561576902866363525
-1.00226676464080811 0.278344988822937012 0.520260155200958252
0.966160297393798828 0.577205777168273926 1.08107149600982666
-0.339720487594604492 0.382704377174377441 0.551113426685333252
-0.785703957080841064 0.125919431447982788 0.0759652480483055115
-0.0314449667930603027 1.08907055854797363 -0.650091350078582764
1.183860182762146 0.690493881702423096 -0.442431002855300903
-0.680980920791625977 -0.372745126485824585 -0.24323505163192749
-0.586559593677520752 -1.30407547950744629 -0.335089504718780518
-0.147277876734733582 -0.115875653922557831 0.0666187703609466553
-0.71195906400680542 -0.441552639007568359 -0.167252391576766968
-0.324279934167861938 0.803512334823608398 0.333831787109375
-1.20020115375518799 1.02255797386169434 -0.302934169769287109
-0.250463545322418213 -0.563588142395019531 1.04449760913848877
-0.34115937352180481 -0.0041408836841583252 0.870383679866790771
-0.148447737097740173 1.4705890417098999 0.596112728118896484
0.0472303889691829681 -0.881508529186248779 -1.35504269599914551
-0.257504969835281372 0.605398118495941162 -0.772644877433776855
0.751007974147796631 -1.31889259815216064 -0.0438948497176170349
0.464480757713317871 -0.0400223545730113983 -1.41292655467987061
-1.02414870262145996 0.840220451354980469 0.354389995336532593
1.23839008808135986 -1.51166224479675293 -0.458136439323425293
-0.805187761783599854 0.757731497287750244 -0.251521855592727661
0.499063313007354736 -1.17882192134857178 1.53093135356903076
0.533612906932830811 -0.0991037487983703613 -0.104184679687023163
-0.305395662784576416 1.01012277603149414 -0.408009529113769531
1.9845956563949585 0.554717123508453369 0.141889080405235291
-0.420866012573242188 -0.194000869989395142 0.349934518337249756
-0.148114606738090515 0.763745725154876709 -0.475950807332992554
0.847977340221405029 0.77836453914642334 1.5878671407699585
-0.910310626029968262 -0.976699948310852051 0.312700927257537842
-0.609050154685974121 0.121029265224933624 0.96104741096496582
-0.226332664489746094 0.369875639677047729 1.229012131690979
2.13910388946533203 -0.0962891727685928345 -0.31054842472076416
1.2829291820526123 -1.30798852443695068 -2.20621204376220703
-0.281056463718414307 0.37793084979057312 1.74765133857727051
-0.46758955717086792 0.557659566402435303 -0.498107075691223145
0.714128792285919189 0.0375627130270004272 1.95673167705535889
-0.123992197215557098 -0.347207009792327881 -1.3513869047164917
0.411302804946899414 0.14931933581829071 -0.344490528106689453
0.86190330982208252 1.25818943977355957 -0.162610560655593872
1.48354637622833252 -0.112070880830287933 0.968065559864044189
0.31902611255645752 -0.198281809687614441 0.148687958717346191
-0.129584163427352905 -1.10592734813690186 0.251102805137634277
-0.05639619380235672 -0.443560540676116943 1.003578782081604
0.406402349472045898 -0.941825389862060547 1.21997272968292236
0.355635702610015869 0.398473203182220459 1.4205012321472168
1.61237514019012451 -0.689515173435211182 0.200750410556793213
1.54355895519256592 -0.0805617421865463257 0.699386954307556152
-0.620315134525299072 -0.180087029933929443 0.309516966342926025
-0.951569259166717529 -0.314949154853820801 0.704834401607513428
0.484974801540374756 -0.294729232788085938 1.10827243328094482
0.610412478446960449 0.348433732986450195 2.05150651931762695
-0.523106217384338379 0.873335182666778564 1.37601840496063232
0.194682180881500244 -0.13490632176399231 -0.434176862239837646
-1.89119887351989746 1.68344736099243164 0.327151566743850708
1.30544936656951904 -0.777205467224121094 0.105989143252372742
0.526086747646331787 0.829515397548675537 0.581872522830963135
-0.0190157368779182434 0.0329527705907821655 2.67505288124084473
0.105732843279838562 -0.253540217876434326 -0.370410650968551636
-0.766983091831207275 -0.61189800500869751 1.08872413635253906
0.018583446741104126 -1.22695446014404297 -0.572829186916351318
0.247987270355224609 2.01770830154418945 -0.985017299652099609
0.320546388626098633 -0.534815192222595215 0.115141503512859344
1.7182992696762085 -0.324807673692703247 -1.27108705043792725
0.479300111532211304 -1.24599337577819824 0.607959985733032227
-1.18908107280731201 -0.570359468460083008 0.473535835742950439
-0.336298286914825439 1.52079927921295166 1.00345265865325928
-1.77317941188812256 -0.326108396053314209 -0.444189310073852539
1.65080714225769043 -0.34441685676574707 -0.285509347915649414
-0.480403274297714233 2.02695608139038086 1.08342564105987549
-0.750524282455444336 0.0303897783160209656 0.0469192937016487122
-1.81807172298431396 -0.0280390530824661255 -0.360105991363525391
1.2251732349395752 -0.103959910571575165 1.29634261131286621
1.0092238187789917 -1.48348701000213623 -0.400808483362197876
-1.01649796962738037 -0.450881540775299072 0.290152668952941895
0.673636674880981445 -0.486027449369430542 -0.353469014167785645
-1.02614855766296387 -0.619384050369262695 -0.481394052505493164
1.23059380054473877 -1.18110287189483643 0.105859510600566864
0.432823717594146729 -0.340759575366973877 -2.16372179985046387
-0.76931685209274292 -0.428644329309463501 -0.302845656871795654
1.37233805656433105 -0.150664687156677246 -0.0300814956426620483
-0.855947494506835938 0.995478630065917969 -0.446648985147476196
-1.80567169189453125 -0.0479225702583789825 0.483897686004638672
0.381974071264266968 -0.245952263474464417 0.874235033988952637
0.0958260968327522278 -0.384880334138870239 4.07569694519042969
-0.281780362129211426 0.313888192176818848 -0.186695501208305359
1.30632519721984863 0.443882882595062256 0.322396695613861084
-0.390866100788116455 -0.787741661071777344 0.209831401705741882
0.379389822483062744 0.262564361095428467 -0.766181409358978271
1.89942348003387451 0.519742846488952637 0.902356505393981934
0.354633063077926636 2.03152227401733398 -0.124644547700881958
0.565301477909088135 0.820067226886749268 -0.244391053915023804
-0.326095014810562134 -0.546624302864074707 -0.451236903667449951
0.374773383140563965 0.54614412784576416 1.47564530372619629
0.44677048921585083 0.666406869888305664 0.0628481581807136536
0.206871390342712402 0.239829182624816895 -1.27344727516174316
-0.269370317459106445 1.19926095008850098 0.210786670446395874
-0.602275669574737549 -0.421669572591781616 -1.46366894245147705
-0.189848423004150391 -1.54458630084991455 -0.389516830444335938
0.226187258958816528 -0.0288601815700531006 -0.732037246227264404
-0.536783099174499512 1.62463057041168213 1.70267689228057861
-1.42866742610931396 1.36944067478179932 -0.291459888219833374
-0.494182765483856201 1.43545770645141602 -1.30153751373291016
-0.763439536094665527 1.32642817497253418 0.315740227699279785
-0.819165229797363281 2.62453866004943848 0.521762728691101074
0.399307578802108765 2.52087497711181641 0.434431493282318115
-0.123286992311477661 -1.81668901443481445 -0.823061347007751465
1.47426927089691162 -0.0198112651705741882 -0.220512628555297852
0.328860282897949219 -0.100242465734481812 -0.163794010877609253
-2.20707225799560547 -0.00602079182863235474 -0.923591792583465576
1.03108787536621094 0.570532023906707764 -0.149072736501693726
-0.92400062084197998 2.3701021671295166 -0.8591269850730896
-0.796620488166809082 2.09067416191101074 -0.268471658229827881
-0.567551732063293457 0.658652186393737793 -1.31835639476776123
0.0897135734558105469 -0.286147773265838623 -0.511550605297088623
0.535115599632263184 2.03282761573791504 0.213066995143890381
0.823894739151000977 -0.742848336696624756 0.691394627094268799
1.60028707981109619 -0.0583780929446220398 0.831119656562805176
0.535576939582824707 -0.169855028390884399 -0.603792428970336914
0.186196058988571167 -0.287637531757354736 -0.0753473341464996338
0.448671072721481323 -1.29400599002838135 0.78170931339263916
-1.7860640287399292 -0.0641756430268287659 0.204486340284347534
-0.00667591392993927002 -0.313485562801361084 -0.37026369571685791
1.20407223701477051 -0.611465096473693848 0.0699573829770088196
0.122079841792583466 -0.805887818336486816 -1.10716748237609863
0.0328978449106216431 0.632860302925109863 -1.39105033874511719
1.03576171398162842 0.511634886264801025 -0.167151600122451782
0.27506488561630249 -0.0910672470927238464 -0.120714932680130005
0.857290983200073242 0.476488232612609863 0.875559508800506592
0.86829841136932373 -0.0486620217561721802 1.14688694477081299
1.37283897399902344 0.221708327531814575 1.46880221366882324
0.338736772537231445 0.18591657280921936 0.293394207954406738
0.538263976573944092 -0.0771697685122489929 1.44797182083129883
0.356961339712142944 -1.02639102935791016 0.284831881523132324
-0.21259792149066925 0.383397936820983887 1.49995768070220947
0.833262443542480469 -0.32555583119392395 -2.57894992828369141
-1.38624274730682373 0.253492116928100586 0.482298552989959717
-0.0383033193647861481 -0.0357463136315345764 -1.84096813201904297
0.266788512468338013 -0.310336530208587646 -0.0209642574191093445
0.483091443777084351 2.00018429756164551 0.336092352867126465
-0.250429272651672363 -0.16319507360458374 -0.6338234543800354
0.47130507230758667 1.47806310653686523 -1.33516371250152588
1.5234534740447998 -0.036799989640712738 0.272377848625183105
-0.854742169380187988 -0.126740500330924988 -0.372061461210250854
0.0675717145204544067 -2.5194549560546875 -1.17957568168640137
-1.30766403675079346 0.545860469341278076 0.628549695014953613
0.302674621343612671 -1.40106868743896484 -0.726303458213806152
0.134453564882278442 3.00415372848510742 -0.428969144821166992
0.718129336833953857 -0.316004246473312378 0.245504707098007202
0.307728111743927002 0.0522274672985076904 0.0458443164825439453
1.31839799880981445 -1.71223664283752441 -0.916245341300964355
0.292517006397247314 -0.887376487255096436 2.58932828903198242
0.62439727783203125 -0.184090286493301392 0.672143757343292236
-0.517763972282409668 0.354257285594940186 -0.940712928771972656
-0.248914375901222229 0.118798337876796722 -0.868119776248931885
0.0756704509258270264 -0.712353169918060303 -0.98458397388458252
-0.477722704410552979 0.366408348083496094 -0.280650585889816284
-0.414027184247970581 -0.141334682703018188 -0.613196372985839844
0.399396300315856934 1.06807470321655273 -0.176891684532165527
1.19391655921936035 1.7857968807220459 -0.161607816815376282
0.638236284255981445 0.214158982038497925 0.0291429907083511353
1.71000289916992188 0.547566592693328857 -0.699768960475921631
-0.489227473735809326 -1.20973110198974609 -1.07272958755493164
0.760222315788269043 -0.461864769458770752 -0.260706067085266113
-0.359019815921783447 -0.645510017871856689 -1.66850006580352783
0.368686139583587646 -0.428343653678894043 1.06153857707977295
0.138196706771850586 -0.256290256977081299 -1.65539109706878662
-1.56644928455352783 -0.725632429122924805 0.46842879056930542
1.92917752265930176 1.91301250457763672 -1.20433342456817627
-1.07678067684173584 -1.31072545051574707 1.89000380039215088
-0.591913938522338867 0.472295522689819336 1.35631561279296875
0.305028378963470459 -0.0172822326421737671 -0.169700056314468384
3.33445167541503906 1.3513253927230835 -0.184370547533035278
-0.735251963138580322 2.1127936840057373 1.81142306327819824
1.20482146739959717 -0.474870294332504272 -1.12569642066955566
1.7516484260559082 -0.134498238563537598 0.712330639362335205
0.944564759731292725 0.557077109813690186 0.781303763389587402
0.368920803070068359 0.394270896911621094 0.335091054439544678
1.07300925254821777 -0.0966566950082778931 -0.766498863697052002
0.473890304565429688 -0.103183060884475708 0.808333635330200195
1.4714280366897583 -1.32201719284057617 -0.243741050362586975
-0.489025920629501343 0.280609279870986938 -0.537985146045684814
-0.019566759467124939 0.428177416324615479 1.00083398818969727
-0.570802927017211914 0.738784849643707275 -0.837715744972229004
0.392425537109375 0.790960788726806641 0.268455028533935547
1.34529340267181396 1.28907442092895508 0.605620384216308594
1.67433440685272217 -0.0470785126090049744 0.158311694860458374
1.51084423065185547 -1.14033472537994385 -1.71596193313598633
-0.204208701848983765 -0.467131108045578003 -2.11146807670593262
-0.720192492008209229 -0.0417640432715415955 0.893395721912384033
1.29599463939666748 -0.105968914926052094 -0.500406026840209961
-0.168376579880714417 0.368585348129272461 0.293376564979553223
0.72619253396987915 -0.850998938083648682 0.348048031330108643
1.00874066352844238 0.857095122337341309 -0.18698999285697937
0.232418149709701538 1.0832979679107666 0.633678019046783447
1.17829954624176025 -0.161948949098587036 -0.334176480770111084
-0.171669542789459229 0.347643643617630005 0.650024592876434326
0.692168712615966797 0.0396216809749603271 1.28287398815155029
1.2008746862411499 0.168160289525985718 1.19695162773132324
0.753467023372650146 0.546691358089447021 -0.508606135845184326
-1.46054708957672119 0.215673446655273438 -0.969593286514282227
-1.1496269702911377 -1.4368140697479248 -0.113467104732990265
-1.11521542072296143 -0.164003461599349976 1.59488868713378906
-1.40408718585968018 0.489991247653961182 -0.0397267565131187439
-0.980719447135925293 0.224664941430091858 0.505123019218444824
0.423950225114822388 0.659993350505828857 0.684669256210327148
1.51075100898742676 0.646948754787445068 0.0439765229821205139
0.0240635648369789124 -0.241521388292312622 -1.12578833103179932
-1.02702915668487549 -0.305900126695632935 0.164903074502944946
-0.202372521162033081 1.45519173145294189 -1.14213883876800537
1.01382029056549072 -0.763348042964935303 1.25434517860412598
0.282100796699523926 0.491966128349304199 0.110224545001983643
1.00221502780914307 0.730442166328430176 -0.515457987785339355
0.869354426860809326 -0.0583759881556034088 0.0546033009886741638
-1.51143932342529297 1.69469785690307617 0.988494575023651123
-1.39841032028198242 0.297625035047531128 0.724158525466918945
-0.463122546672821045 -0.103340364992618561 -0.47789454460144043
0.105371482670307159 -1.32982945442199707 1.20980238914489746
0.220409885048866272 0.0459850579500198364 0.453467398881912231
-0.0603322610259056091 0.284907817840576172 0.629579305648803711
-0.697945296764373779 0.262044072151184082 -0.935857653617858887
0.548708617687225342 0.341752171516418457 -1.23418223857879639
1.19259476661682129 -1.66604995727539062 -1.82670783996582031
-0.0856477618217468262 0.989786863327026367 -0.0939727351069450378
-0.0834723785519599915 -0.595803916454315186 -0.489016473293304443
-0.768190443515777588 -1.07431244850158691 0.181690841913223267
-0.193583399057388306 0.0504092425107955933 0.254608452320098877
-0.814571201801300049 -1.66048574447631836 0.692613363265991211
0.043480847030878067 0.81571727991104126 0.385769486427307129
1.5036170482635498 -0.144736036658287048 0.460614919662475586
-0.692532598972320557 -0.04698939248919487 -0.641054153442382812
-0.320245623588562012 -1.60387051105499268 1.11667287349700928
-1.25679886341094971 -0.390316426753997803 0.132829368114471436
-0.0512774214148521423 1.22315394878387451 -1.24897193908691406
-0.134695366024971008 -0.479962289333343506 0.46994742751121521
-0.927973806858062744 0.686632990837097168 0.470741331577301025
-0.0514975264668464661 -3.6384894847869873 -0.976668477058410645
-0.0842477679252624512 0.993146538734436035 -0.224117904901504517
-0.360844671726226807 -0.315725266933441162 -0.522101521492004395
1.19114398956298828 -0.0131101310253143311 1.55861866474151611
0.269331246614456177 -0.397039413452148438 0.428151756525039673
-0.802141070365905762 0.377538025379180908 -0.934510111808776855
0.736385524272918701 -0.686215877532958984 0.986511051654815674
0.923175573348999023 -0.447452068328857422 -0.215199217200279236
1.79072630405426025 -0.0882481709122657776 -0.929548025131225586
-1.33488821983337402 -2.30230927467346191 -1.40234827995300293
-2.58215069770812988 -1.29350793361663818 -0.271212726831436157
0.647760510444641113 -0.203404977917671204 -1.34173035621643066
0.283243745565414429 0.532622337341308594 -1.17340421676635742
-1.31811702251434326 0.643597006797790527 -0.783607065677642822
-1.61437177658081055 -0.156991377472877502 1.68800711631774902
0.730661213397979736 -0.374609261751174927 -0.351448416709899902
-1.31921875476837158 1.26763629913330078 0.115915045142173767
2.03129816055297852 -0.059292621910572052 -0.880039215087890625
-0.43034246563911438 0.201307490468025208 0.821732461452484131
1.93989026546478271 -0.137165099382400513 -1.20162546634674072
0.718679487705230713 -0.0614865571260452271 0.239017367362976074
0.0838491693139076233 -0.104974210262298584 1.32118678092956543
0.0693348348140716553 0.230911463499069214 -0.775528788566589355
0.944405496120452881 0.653216421604156494 0.882604598999023438
0.494001984596252441 -0.728072166442871094 -0.467543423175811768
0.678174853324890137 1.26323997974395752 0.05641135573387146
-0.580637633800506592 -0.0607501305639743805 -0.272355347871780396
0.740974307060241699 -0.105816833674907684 -0.259576201438903809
0.442490667104721069 -0.520498454570770264 1.01047968864440918
1.60139691829681396 -0.373133599758148193 0.848054826259613037
1.75107812881469727 0.0264693796634674072 -0.41944006085395813
-0.0142826884984970093 0.720556318759918213 -0.417025744915008545
2.59365177154541016 0.859783709049224854 0.947006583213806152
0.265644490718841553 0.555044949054718018 0.235954433679580688
1.93848252296447754 1.06664228439331055 0.165113627910614014
-0.473954141139984131 -1.81231403350830078 0.22500234842300415
-0.0104715600609779358 -0.160120338201522827 -0.720312893390655518
0.537826180458068848 -0.391455203294754028 1.78516674041748047
-1.32802164554595947 -0.476270347833633423 0.542102158069610596
0.483038425445556641 -0.0476918742060661316 0.573576748371124268
0.770830512046813965 -1.7068789005279541 -0.798944473266601562
0.37524336576461792 0.638947784900665283 0.387523055076599121
-1.2618941068649292 1.49635767936706543 1.65671825408935547
-0.990499794483184814 0.89657062292098999 -0.427178800106048584
-0.403701692819595337 -1.72647035121917725 -1.1298365592956543
0.48711821436882019 -0.00591655075550079346 0.837166845798492432
0.922045111656188965 -0.981827497482299805 -0.0723393708467483521
0.326676547527313232 0.940647006034851074 1.0550687313079834
-0.69347679615020752 -0.0516050755977630615 -0.355679094791412354
0.734554529190063477 0.500309526920318604 -1.3600776195526123
-0.713217020034790039 -0.0917125865817070007 1.40912652015686035
-2.2354590892791748 -0.119404003024101257 0.969143450260162354
0.207456052303314209 -0.075077444314956665 -0.422509998083114624
-0.628512382507324219 -0.152754634618759155 -2.39435315132141113
-0.642794132232666016 -0.00374069809913635254 -2.16210651397705078
0.256584763526916504 -1.32539784908294678 -0.551620781421661377
1.27100932598114014 0.494396746158599854 1.23041915893554688
-0.314144492149353027 1.15838837623596191 -0.0416247919201850891
1.24625766277313232 0.0474815964698791504 0.802132368087768555
-0.255532979965209961 -0.00893610715866088867 0.927239477634429932
-2.23807048797607422 0.654884457588195801 -1.70466291904449463
-0.522465646266937256 -0.0546743907034397125 -0.685293853282928467
0.236552536487579346 0.328904032707214355 -1.11577188968658447
-1.09226775169372559 1.13528144359588623 -0.434498071670532227
-0.67330247163772583 -1.0366283655166626 -0.87192457914352417
-0.279105246067047119 -2.24990749359130859 1.33753132820129395
-0.413264632225036621 1.12759196758270264 -0.387106537818908691
-1.80578696727752686 0.846973240375518799 -0.312638908624649048
-0.211173176765441895 -0.65745621919631958 -0.320258498191833496
0.421300828456878662 -0.188492119312286377 -0.0738291889429092407
-1.3662421703338623 -0.575876712799072266 0.455614626407623291
0.774359583854675293 0.416365981101989746 -0.426125854253768921
-0.934123337268829346 -1.0066220760345459 0.126982823014259338
0.300260484218597412 0.0515190139412879944 -1.50536227226257324
1.4310450553894043 -0.13347192108631134 0.930210113525390625
0.744100809097290039 0.242618143558502197 -0.099527403712272644
1.45011270046234131 -0.784119606018066406 0.0524498596787452698
-0.152474403381347656 -0.526418328285217285 1.35237526893615723
-0.866029202938079834 1.21273207664489746 -0.900365650653839111
-0.824561595916748047 -0.0495990365743637085 -0.341857671737670898
0.0455789528787136078 0.155340060591697693 1.65751397609710693
-0.272666603326797485 0.100649707019329071 0.0865853503346443176
-0.691902518272399902 0.404545992612838745 -0.811128497123718262
-0.470031976699829102 -1.05265593528747559 -1.49974632263183594
-0.591179966926574707 0.54244077205657959 0.175528019666671753
0.724321603775024414 -0.116286434233188629 -0.642681002616882324
1.8547356128692627 -0.464951127767562866 -0.776064574718475342
0.217243045568466187 -0.858645856380462646 -0.326817512512207031
-1.27693629264831543 0.394155442714691162 -0.434633404016494751
0.765016674995422363 -1.00704550743103027 -0.281837373971939087
0.97746431827545166 0.685531020164489746 -1.24294483661651611
1.25084340572357178 0.088567100465297699 0.940912067890167236
-0.787506163120269775 -0.771506428718566895 -0.722320735454559326
1.21638154983520508 1.15365505218505859 0.490350574254989624
-0.11371246725320816 -0.650254189968109131 -1.293975830078125
0.149438619613647461 -0.0964378789067268372 -0.256239175796508789
0.502687036991119385 -1.07760238647460938 1.19180190563201904
1.21022534370422363 -0.0170701444149017334 0.870502889156341553
-0.594305813312530518 0.464186668395996094 0.894008457660675049
0.505699634552001953 0.443745195865631104 -0.66128075122833252
-0.315467298030853271 -0.208353340625762939 0.783716142177581787
-0.0415480062365531921 0.352559328079223633 0.846916377544403076
0.313408374786376953 0.105972304940223694 0.528944134712219238
-0.231833398342132568 -0.311179637908935547 -0.51059877872467041
-0.434355854988098145 0.486184060573577881 -1.6676710844039917
0.696451365947723389 0.787822604179382324 0.67314910888671875
1.7118537425994873 0.0567389354109764099 1.2573540210723877
0.895896196365356445 0.990912258625030518 -0.17688414454460144
-1.71151578426361084 -1.11774909496307373 -1.25694072246551514
0.0854679718613624573 0.17913462221622467 -0.22431609034538269
0.807990491390228271 -0.670757651329040527 0.416863590478897095
-0.169883355498313904 0.190720215439796448 0.231251075863838196
0.414239585399627686 -0.138193294405937195 0.35291600227355957
-0.886922836303710938 0.199632018804550171 1.24984359741210938
-1.18709385395050049 0.196033835411071777 0.214648276567459106
0.262682676315307617 -1.7960885763168335 0.541537165641784668
0.451370418071746826 -0.171806603670120239 -0.336305797100067139
1.95866703987121582 0.634113311767578125 0.812663793563842773
0.246532201766967773 0.455864667892456055 -0.299933522939682007
1.21300077438354492 0.255248755216598511 -0.181079655885696411
-0.960734724998474121 1.17411303520202637 -0.462749451398849487
2.5338737964630127 0.534985184669494629 1.74804925918579102
-0.56341630220413208 -0.883485913276672363 -0.49064260721206665
0.82531583309173584 -0.808317720890045166 -0.101925179362297058
-0.178066432476043701 0.876005351543426514 -0.956518769264221191
1.14256024360656738 0.667115986347198486 0.712574660778045654
0.303106606006622314 -0.826816916465759277 1.12793028354644775
0.0653273016214370728 -1.07308816909790039 -0.216750234365463257
-0.323725104331970215 -0.34085845947265625 0.768848299980163574
-1.86526775360107422 -0.919252395629882812 0.45214611291885376
-0.144814878702163696 -0.0753464028239250183 0.0775401294231414795
-0.37697756290435791 1.90228986740112305 -0.630713045597076416
1.12272274494171143 0.378513693809509277 0.693778753280639648
0.470282495021820068 -0.12865099310874939 -0.493995577096939087
-0.48183324933052063 -0.224319696426391602 -0.482454627752304077
0.829031527042388916 -0.845403194427490234 1.07365357875823975
0.847147166728973389 -0.486943751573562622 0.655630528926849365
-0.247732922434806824 0.481326818466186523 -1.89075970649719238
-0.931648731231689453 -1.374489426612854 0.125702336430549622
