ply
format ascii 1.0
element vertex 753
comment vertices
property float x
property float y
property float z
end_header
-0.51921314001083374 0.423124551773071289 -1.06317400932312012
0.401538819074630737 0.870790302753448486 1.73123025894165039
0.685409784317016602 0.0583728253841400146 -0.280140459537506104
0.458216965198516846 -1.92647647857666016 -0.390234231948852539
0.574531018733978271 0.981845974922180176 -0.586647927761077881
0.0722401067614555359 0.16225886344909668 -0.664648175239562988
-2.02232456207275391 -1.27818262577056885 0.54107511043548584
-1.64250147342681885 -0.638531923294067383 0.896250009536743164
-1.98832046985626221 -0.429829001426696777 0.454084694385528564
0.557798385620117188 0.146565407514572144 1.76150524616241455
0.919748544692993164 0.92769920825958252 -0.680639266967773438
1.71061599254608154 1.15417826175689697 -1.22285592555999756
0.636866927146911621 -0.493261903524398804 0.43156084418296814
-2.41899228096008301 0.711365163326263428 -1.25119590759277344
-0.128728091716766357 0.858035147190093994 0.297057002782821655
-0.0523953288793563843 -0.098720453679561615 0.60696101188659668
0.785623371601104736 1.74105358123779297 0.461042344570159912
-0.190421834588050842 1.02625656127929688 -0.568736910820007324
-0.438410729169845581 0.164178222417831421 -0.465099930763244629
-0.822570860385894775 0.0855857878923416138 -1.2843557596206665
-0.0451880320906639099 -0.0620459914207458496 0.235863029956817627
0.665632188320159912 -0.790029406547546387 0.424973607063293457
-0.410209387540817261 1.00909316539764404 -0.209778457880020142
-1.21170628070831299 -0.354098349809646606 1.19878756999969482
-0.773002505302429199 -0.89716637134552002 -1.1411670446395874
0.57572251558303833 -0.0239776149392127991 -0.191156297922134399
1.79184579849243164 0.9531097412109375 0.607831835746765137
0.529786050319671631 -1.05904340744018555 0.0191400572657585144
0.647600948810577393 -0.613524973392486572 0.69260019063949585
0.718396425247192383 0.0862384140491485596 -1.47531211376190186
0.888414978981018066 -1.55170965194702148 -0.910503506660461426
-0.314239680767059326 2.57593011856079102 1.42147564888000488
0.226330220699310303 -0.587483048439025879 0.554262697696685791
1.23599660396575928 -0.333532601594924927 -1.27445709705352783
-1.60600733757019043 -0.93623960018157959 0.219284385442733765
0.720327854156494141 -1.47878456115722656 -0.141203492879867554
-1.86907005310058594 0.305446803569793701 1.78272020816802979
-0.104075893759727478 0.823059022426605225 0.919527530670166016
0.629116833209991455 -0.182860314846038818 0.582545697689056396
0.795645594596862793 0.106597431004047394 -0.370858967304229736
-0.551499605178833008 -0.103484131395816803 -0.39871332049369812
2.56759357452392578 1.43658864498138428 0.753667056560516357
-0.65456998348236084 0.599108636379241943 0.604498922824859619
-1.97597801685333252 0.00677403807640075684 0.998793244361877441
-0.545140385627746582 -0.864269912242889404 -0.188509315252304077
0.723602116107940674 0.609006643295288086 -0.617153704166412354
-1.26565444469451904 0.202334821224212646 0.233179092407226562
-0.224828809499740601 1.66073894500732422 0.592591643333435059
0.435242056846618652 -0.354426652193069458 0.52155989408493042
-0.374189823865890503 0.249651059508323669 1.19275772571563721
-1.15627872943878174 -1.42348051071166992 -1.62358975410461426
-0.966408014297485352 -0.443621128797531128 0.119773104786872864
0.0660797059535980225 -1.13214421272277832 -0.195753425359725952
0.561121582984924316 0.333875477313995361 0.283182710409164429
-1.30098521709442139 0.278880208730697632 -0.541513383388519287
0.410382390022277832 0.0438126251101493835 -1.14211976528167725
-0.785802781581878662 -0.617462813854217529 0.412777423858642578
0.131986290216445923 0.749098658561706543 -0.33125641942024231
0.486183047294616699 1.21291005611419678 -1.10942089557647705
-0.0514157786965370178 -1.22181880474090576 -1.0901714563369751
-1.68985128402709961 0.82778775691986084 1.05306649208068848
-0.878361046314239502 1.59164726734161377 1.21509015560150146
-0.482149124145507812 -0.85224539041519165 0.123084649443626404
-0.772003054618835449 -0.678774714469909668 0.908383309841156006
-2.33809804916381836 -0.551648974418640137 -0.276071131229400635
0.930342137813568115 0.187442183494567871 -0.339180856943130493
-0.537557601928710938 -0.819747209548950195 0.421206474304199219
-0.024907134473323822 0.0508479848504066467 -1.22628068923950195
0.461655646562576294 1.15261781215667725 -0.636169850826263428
0.660577654838562012 0.825522840023040771 0.834078550338745117
-0.40655672550201416 0.180395066738128662 1.26306390762329102
1.01016378402709961 0.755344152450561523 -0.253291547298431396
-0.793417096138000488 0.857168853282928467 -1.07785344123840332
-0.649886846542358398 -0.830929100513458252 0.0767092406749725342
-0.939026176929473877 -1.16508865356445312 0.663659214973449707
1.37742877006530762 0.782814741134643555 0.431820571422576904
1.90028190612792969 -0.518101394176483154 -1.04755783081054688
0.00615811347961425781 0.147622734308242798 0.524900913238525391
-1.60916018486022949 -0.777852356433868408 -0.117602154612541199
-0.715449154376983643 0.566150665283203125 -0.0111553221940994263
0.673198938369750977 0.318659603595733643 1.25782513618469238
0.423279821872711182 -1.03983354568481445 0.329775810241699219
1.56407856941223145 0.150659352540969849 0.195781946182250977
-0.0376492887735366821 0.343631237745285034 -1.06611514091491699
1.8422539234161377 -0.663806378841400146 -0.132841914892196655
1.2849431037902832 1.55411314964294434 0.155647292733192444
0.676313996315002441 -0.0206998065114021301 0.294678747653961182
-0.172554165124893188 -0.476969271898269653 -0.928958475589752197
1.59046483039855957 -2.32171154022216797 -0.0706344693899154663
-0.775120198726654053 0.199943140149116516 1.0512160062789917
-0.0633669942617416382 0.134960740804672241 -0.191078811883926392
0.827463090419769287 -0.359942853450775146 -0.132475420832633972
1.67489504814147949 1.02430391311645508 2.37281513214111328
1.41114521026611328 0.899162113666534424 0.0949821248650550842
-1.60540437698364258 1.25662779808044434 -1.0422210693359375
-1.27008569240570068 -0.518553376197814941 0.964573383331298828
-0.309799879789352417 0.224364817142486572 0.588977396488189697
0.164497971534729004 0.322057723999023438 1.12397491931915283
-0.342719018459320068 0.755491495132446289 -1.57158875465393066
-0.239610970020294189 0.332772552967071533 0.501033186912536621
0.846871256828308105 -1.62585186958312988 -1.54483926296234131
-0.324022620916366577 -0.409822523593902588 0.423225075006484985
-0.24784204363822937 0.144499108195304871 -0.516799092292785645
-1.50631856918334961 0.689080595970153809 0.132424309849739075
-0.382965385913848877 -1.12019085884094238 -1.05714619159698486
-0.151355445384979248 0.0369354188442230225 0.0810290426015853882
-1.00107753276824951 0.0718713924288749695 0.463835299015045166
0.520420372486114502 -1.32837677001953125 0.28572237491607666
-0.613771796226501465 -0.346699833869934082 1.65181839466094971
0.453505456447601318 -0.654771089553833008 0.340071320533752441
-1.4923858642578125 0.289150744676589966 -0.13404497504234314
-1.48279345035552979 1.75602173805236816 0.689051270484924316
1.78203487396240234 0.16072554886341095 1.38572275638580322
-0.92426377534866333 1.09147894382476807 -0.324394077062606812
0.686165690422058105 -2.16166019439697266 -0.00427931547164916992
0.232160508632659912 0.290439188480377197 0.279240429401397705
0.220816850662231445 3.09585905075073242 0.435691744089126587
-1.5321800708770752 1.26839888095855713 1.646750807762146
-0.289937347173690796 0.245673134922981262 -0.564153194427490234
-0.17950575053691864 -1.70186150074005127 0.410915553569793701
-0.0672074183821678162 -0.892881453037261963 2.30057954788208008
0.749948978424072266 -0.106641232967376709 -0.193105578422546387
-0.326125562191009521 0.314593911170959473 0.653937220573425293
0.107484489679336548 0.0306783765554428101 0.267001301050186157
1.04368734359741211 -1.61927461624145508 -1.47142624855041504
-0.832544445991516113 0.180806517601013184 -0.170433282852172852
1.49815702438354492 1.65288937091827393 1.46523451805114746
-0.893481016159057617 0.104102648794651031 0.886554718017578125
0.531027495861053467 -0.751810550689697266 -1.3122025728225708
-2.06434321403503418 0.312485098838806152 -1.82630884647369385
-0.437803894281387329 -1.30773317813873291 -0.0591861829161643982
0.547282636165618896 0.659807682037353516 -0.606812119483947754
-0.3413352370262146 -0.741663753986358643 1.20578861236572266
-0.906067788600921631 0.0597005970776081085 -0.821576952934265137
0.0764812678098678589 1.39915013313293457 0.72967606782913208
-1.28732490539550781 -1.09223496913909912 0.00965315848588943481
0.842224061489105225 0.440616428852081299 -1.36522758007049561
0.31556999683380127 -0.227818235754966736 1.28905212879180908
0.0286971330642700195 -0.125372827053070068 0.155734747648239136
-1.5029902458190918 -0.605745494365692139 -0.0968791022896766663
-1.92502641677856445 1.87129330635070801 0.0950418934226036072
1.42057287693023682 0.564155638217926025 -1.58188438415527344
0.594155251979827881 1.26002383232116699 -0.0997189879417419434
0.920647621154785156 -1.54185104370117188 0.340452432632446289
2.34027767181396484 1.44380998611450195 0.190200582146644592
0.568392515182495117 -0.526254713535308838 -0.790248334407806396
-1.81562125682830811 0.101790405809879303 0.203144848346710205
0.327286183834075928 0.454505473375320435 -0.239861726760864258
0.53169548511505127 0.0399803221225738525 -0.583168983459472656
-0.552757203578948975 0.208595395088195801 1.22177433967590332
2.10123634338378906 0.379740208387374878 -0.304923057556152344
-0.564733147621154785 -1.35521805286407471 0.440497606992721558
0.0254523977637290955 0.828921914100646973 -0.0584028586745262146
-0.618717372417449951 1.02037477493286133 0.656650245189666748
1.17362689971923828 -0.0080997273325920105 0.965615749359130859
1.14443469047546387 -0.00123514235019683838 0.145339131355285645
-1.59472525119781494 -1.1606132984161377 -0.0156137719750404358
-1.29072344303131104 -0.100223585963249207 1.01572310924530029
-0.874459028244018555 -0.0168933793902397156 0.429340362548828125
-0.804689109325408936 -0.256104886531829834 0.733636617660522461
-0.820412874221801758 -0.12145223468542099 -0.462375491857528687
-0.249886363744735718 -0.551235079765319824 0.366893082857131958
0.294234037399291992 0.685631871223449707 0.628424644470214844
0.261039823293685913 -0.016930997371673584 0.0772784054279327393
-0.776568472385406494 -0.387183248996734619 1.19783306121826172
-0.531456589698791504 -0.956461191177368164 -0.423393130302429199
0.0133721381425857544 -2.09422588348388672 0.724363505840301514
0.0461017489433288574 0.755344510078430176 0.301463544368743896
-0.709080278873443604 -1.14766418933868408 -1.0462949275970459
0.122863292694091797 0.151991024613380432 1.96773946285247803
-0.993319034576416016 0.614095330238342285 0.733901858329772949
1.88545024394989014 -0.967691421508789062 0.568475782871246338
-0.346649050712585449 1.59588372707366943 -0.600485861301422119
-1.1399918794631958 -0.0974144041538238525 0.445660591125488281
-0.0942426770925521851 0.426949352025985718 -0.83561241626739502
0.0225346684455871582 -0.221312388777732849 0.815822899341583252
1.04633235931396484 -0.821267127990722656 1.20031929016113281
1.11229431629180908 -0.0962530672550201416 0.120372235774993896
0.413681834936141968 0.190097004175186157 0.906355142593383789
-0.577101826667785645 2.24496936798095703 -0.13243749737739563
0.481022566556930542 -0.458483904600143433 0.314445316791534424
-1.4752572774887085 -0.482626378536224365 -0.85190504789352417
0.975165903568267822 0.536799192428588867 -0.259317070245742798
0.670131802558898926 -0.498136281967163086 -0.0907177478075027466
0.285509645938873291 1.01643455028533936 1.14419722557067871
1.34383118152618408 -0.444870650768280029 0.304759562015533447
0.84971928596496582 -0.767700612545013428 0.892526328563690186
-0.467089265584945679 0.486011147499084473 -1.57332205772399902
0.437960803508758545 -0.0557081922888755798 0.171097546815872192
-0.947505950927734375 1.45526421070098877 0.412267386913299561
-0.599091887474060059 -0.154074609279632568 -1.97186529636383057
-1.73174583911895752 0.461459904909133911 -0.855570018291473389
1.14025592803955078 1.15203285217285156 0.331309974193572998
0.695537388324737549 -0.943108916282653809 -0.749068737030029297
-0.251048147678375244 -0.0479850694537162781 -0.716455519199371338
0.93540114164352417 0.057665504515171051 1.19385302066802979
0.442212224006652832 -1.24247503280639648 -1.04131567478179932
-0.387800723314285278 0.145230144262313843 0.8337668776512146
-0.853311061859130859 -0.362445324659347534 -2.13216853141784668
-1.19091928005218506 0.806121528148651123 0.666248083114624023
-1.04875814914703369 -0.102413177490234375 0.0468134582042694092
1.30771589279174805 -0.836521804332733154 0.318009912967681885
1.79466640949249268 -1.38932228088378906 1.94782030582427979
1.19032680988311768 -1.13960695266723633 0.157865196466445923
-0.812761127948760986 1.39192712306976318 -0.201270192861557007
-0.171391814947128296 -0.158816337585449219 0.298009037971496582
-0.414226889610290527 -0.83294212818145752 0.311489999294281006
-0.00473091006278991699 0.823327362537384033 -1.16838622093200684
-1.24677765369415283 0.0798662975430488586 -0.0128528550267219543
1.72470331192016602 -1.78216886520385742 0.25432315468788147
-0.10149884968996048 0.361582458019256592 -0.316935747861862183
0.568771123886108398 -1.73938870429992676 -0.0282923281192779541
-0.85587620735168457 -1.12540090084075928 0.356697142124176025
0.749665200710296631 0.208993807435035706 0.40512549877166748
0.377460956573486328 -2.08925342559814453 1.67367029190063477
0.241687268018722534 0.30764731764793396 -0.276117414236068726
0.732361078262329102 0.323303759098052979 0.777143537998199463
-1.87705779075622559 0.742960810661315918 -1.0661463737487793
0.448865830898284912 1.00941205024719238 0.332243472337722778
0.588343501091003418 0.859436571598052979 1.34497249126434326
-0.954050362110137939 0.0620481148362159729 1.67998933792114258
-0.868510305881500244 0.363508701324462891 0.0704480856657028198
-0.18296407163143158 -0.257542550563812256 1.54580163955688477
0.687156438827514648 0.43278619647026062 1.73924708366394043
0.848483681678771973 1.46948742866516113 1.87453639507293701
0.490261554718017578 1.41850388050079346 -0.571920335292816162
1.61901235580444336 1.24460279941558838 1.16389679908752441
-0.0750715509057044983 0.915911555290222168 1.54754066467285156
-1.11991119384765625 -0.399385184049606323 1.28176772594451904
-1.52872443199157715 0.1616860032081604 0.294915854930877686
0.151960670948028564 1.21509754657745361 0.642414450645446777
-0.55719459056854248 0.00726996362209320068 -2.22415733337402344
-0.726922273635864258 0.162140905857086182 0.571233451366424561
0.579201817512512207 1.49928176403045654 0.0606012493371963501
-1.50809121131896973 -0.888581335544586182 -0.407463371753692627
-0.13071131706237793 -1.38367986679077148 0.442382872104644775
-0.899509906768798828 1.30749154090881348 -0.617468297481536865
-0.89889824390411377 -1.37768721580505371 0.220095515251159668
-1.20740091800689697 0.660454154014587402 0.828229248523712158
0.63916093111038208 -0.0254387184977531433 -1.11728370189666748
0.177674144506454468 2.39249491691589355 0.162511244416236877
0.530174911022186279 -0.410214066505432129 0.267612934112548828
1.52539980411529541 1.18675792217254639 0.180109858512878418
0.6759147047996521 0.366271376609802246 1.46462833881378174
-0.282938748598098755 -0.534149289131164551 0.243895307183265686
-0.870107412338256836 0.811583459377288818 -2.68683600425720215
0.333730697631835938 0.068722948431968689 -0.761720240116119385
0.300488829612731934 0.238743841648101807 -0.330250322818756104
0.625072777271270752 -0.460205137729644775 -0.450825273990631104
0.27438044548034668 -0.921289563179016113 0.599869608879089355
0.704949736595153809 -0.25472182035446167 0.701908230781555176
-0.544016599655151367 0.22058907151222229 0.0209401845932006836
-0.230781227350234985 -1.21347486972808838 0.16570650041103363
1.30243980884552002 -1.57084667682647705 0.049740280956029892
0.883855342864990234 -0.455061882734298706 1.97910726070404053
0.579559504985809326 0.329221904277801514 0.773715198040008545
-0.832898259162902832 0.7945556640625 -0.304060488939285278
-0.788043677806854248 0.189078480005264282 0.502207040786743164
1.11027789115905762 0.941678345203399658 2.26566267013549805
-0.72243201732635498 0.0453293994069099426 -0.796450257301330566
-0.176824718713760376 0.0252625569701194763 0.0413230136036872864
1.09044027328491211 -0.115515038371086121 0.334743291139602661
-0.540398657321929932 -0.409823149442672729 -0.0110227838158607483
1.42956352233886719 -1.59550940990447998 -2.68783903121948242
0.671472847461700439 0.0786001458764076233 -0.0612683594226837158
-1.66601145267486572 -0.716585695743560791 0.39061245322227478
1.126456618309021 -0.512643337249755859 0.599986433982849121
2.77744483947753906 0.327023446559906006 -1.29542160034179688
-0.900062441825866699 0.403240323066711426 -0.505413353443145752
0.2189483642578125 -1.26550590991973877 0.902531445026397705
0.498568296432495117 -0.0279335901141166687 -0.884897112846374512
-1.15738141536712646 -0.361323058605194092 1.40127205848693848
2.44412803649902344 -0.415795177221298218 -2.13821196556091309
0.692188799381256104 1.31366205215454102 -0.832447171211242676
-0.372956186532974243 -0.453328073024749756 -0.784892559051513672
-1.33562028408050537 -0.108722567558288574 -1.26670265197753906
0.93287205696105957 0.0931459888815879822 -2.16772198677062988
0.389936983585357666 -0.566403388977050781 -1.78663516044616699
0.10095631331205368 -0.575696408748626709 0.518076121807098389
-0.136487782001495361 1.42327892780303955 0.210256963968276978
0.0995769724249839783 0.712507009506225586 -0.363694459199905396
-0.986175715923309326 1.74292278289794922 0.373886466026306152
-0.610230326652526855 1.31810605525970459 -0.0396231040358543396
0.215062364935874939 -1.09967195987701416 -0.935608327388763428
-0.390204727649688721 -0.488852173089981079 -1.0432668924331665
-1.11468374729156494 -0.511693477630615234 -0.697554349899291992
-0.413848042488098145 -2.79281306266784668 0.00546521693468093872
0.387986838817596436 0.842365026473999023 -0.106985807418823242
-0.945716023445129395 0.519341230392456055 0.902307629585266113
-0.554229497909545898 -2.7784876823425293 -0.815480470657348633
0.750032246112823486 0.099612697958946228 0.535003364086151123
-0.236440032720565796 -0.633339464664459229 -1.37028133869171143
1.35174775123596191 0.815521121025085449 0.542144715785980225
-1.69704651832580566 1.00327730178833008 0.479844510555267334
0.0824325904250144958 -0.412346512079238892 -0.421654880046844482
-0.354904294013977051 -0.598943352699279785 1.04319024085998535
-0.182677015662193298 -0.210442721843719482 0.652744591236114502
-1.64153575897216797 1.46259987354278564 0.814783275127410889
-0.521434962749481201 1.60669910907745361 0.465813934803009033
-1.70565223693847656 1.21570444107055664 0.657163560390472412
1.35812830924987793 0.856177449226379395 1.01056671142578125
-1.62019717693328857 -1.17822074890136719 -0.610586404800415039
-0.00336601585149765015 1.91273117065429688 0.938505649566650391
-1.40525782108306885 -1.08438658714294434 -0.485472023487091064
1.62768995761871338 0.626548409461975098 0.868361055850982666
0.868990659713745117 -0.840549886226654053 -0.267696976661682129
-0.750711321830749512 0.722883284091949463 1.63952720165252686
0.00653915852308273315 0.739503026008605957 0.510790765285491943
0.739614307880401611 0.0544540956616401672 -0.367122769355773926
1.0331341028213501 1.43793320655822754 0.171749711036682129
1.20322895050048828 -0.752265036106109619 -0.0367269068956375122
-0.803369760513305664 -0.477598041296005249 2.17523860931396484
-0.276862859725952148 -0.750501334667205811 -1.08201372623443604
-0.947854578495025635 0.899880826473236084 -0.806115984916687012
-0.853280603885650635 1.19377672672271729 -1.03441452980041504
0.694044888019561768 -1.54694914817810059 1.71083164215087891
0.736708760261535645 0.387702494859695435 0.0866060927510261536
-0.0767812207341194153 -0.970233023166656494 0.0374922417104244232
-0.47559654712677002 -0.513767361640930176 1.1881706714630127
-1.65076637268066406 0.0574176609516143799 -0.0322470739483833313
2.03097987174987793 0.752228736877441406 2.29321718215942383
-0.181311637163162231 0.42710798978805542 0.230299800634384155
-1.30849575996398926 -1.18636524677276611 1.17359757423400879
-0.759742081165313721 1.97182345390319824 0.0785716474056243896
-0.495085239410400391 -0.266178548336029053 -0.858727216720581055
0.910920977592468262 0.202771976590156555 2.11690664291381836
-0.494628667831420898 -0.240160226821899414 0.61001211404800415
-2.01271152496337891 0.482489973306655884 -0.796695590019226074
-0.872198164463043213 1.35462725162506104 0.448672890663146973
-0.787602484226226807 -0.359095871448516846 0.308530330657958984
-0.804440081119537354 0.34531170129776001 -0.341013491153717041
0.525403439998626709 1.04358160495758057 0.216099575161933899
0.011633649468421936 -0.17488880455493927 0.423177003860473633
-1.1992572546005249 0.451638460159301758 0.881737351417541504
0.677137911319732666 0.736205458641052246 0.524909794330596924
1.18296933174133301 0.0668775960803031921 2.54066967964172363
0.666908919811248779 0.705070137977600098 0.120361015200614929
0.0266439467668533325 -0.718559026718139648 0.392307162284851074
-1.62307798862457275 1.47957086563110352 -2.33685946464538574
0.558332562446594238 -1.95346724987030029 0.738608121871948242
-0.336000025272369385 -2.40770626068115234 -0.117304161190986633
0.102539241313934326 -0.00697321444749832153 -0.299886524677276611
-0.0957079529762268066 -0.264824390411376953 0.27723616361618042
0.894133508205413818 -0.299505025148391724 -0.291978150606155396
-0.676572680473327637 -1.01051092147827148 0.230229794979095459
0.15807420015335083 0.13883952796459198 2.83471488952636719
0.484854221343994141 2.07836222648620605 -0.450142264366149902
-0.28398442268371582 0.38696560263633728 0.596180915832519531
-0.246697962284088135 1.29774153232574463 1.51689565181732178
0.801898956298828125 -1.19534814357757568 0.755058944225311279
-0.689667701721191406 0.888009309768676758 0.271560788154602051
-1.06569099426269531 -0.464757978916168213 0.190294176340103149
-0.851295769214630127 0.543670654296875 0.369675934314727783
0.580367803573608398 1.51146650314331055 -1.05766427516937256
2.06479763984680176 -1.13172221183776855 0.909904897212982178
-0.789303004741668701 -0.0688223391771316528 0.403510421514511108
0.725191235542297363 -1.00863516330718994 -1.83208513259887695
-1.5040210485458374 1.74987244606018066 -0.0920504704117774963
-0.0347985029220581055 0.146169275045394897 -0.72666776180267334
-1.88888490200042725 0.103670090436935425 0.39502561092376709
1.00973260402679443 0.0571154505014419556 1.03124618530273438
-0.480337291955947876 -1.03738784790039062 0.788120388984680176
1.04201769828796387 1.12935149669647217 -0.246007353067398071
-0.400232851505279541 -0.16254386305809021 -0.134777188301086426
-0.598952233791351318 1.43182766437530518 -1.14484536647796631
-0.141546174883842468 -0.663228392601013184 -1.00778114795684814
1.90596914291381836 -1.36534976959228516 -1.09016954898834229
2.67426919937133789 -0.292301416397094727 -1.62004613876342773
0.726349294185638428 0.833857476711273193 -0.458307355642318726
-0.149551093578338623 1.25989019870758057 1.63940274715423584
-1.46254706382751465 0.363362133502960205 0.595053374767303467
1.3582921028137207 0.0520527325570583344 -1.0373460054397583
0.877304196357727051 -0.243731707334518433 -0.684296309947967529
0.821463108062744141 -1.47199130058288574 1.35632443428039551
-0.698480606079101562 -0.616305291652679443 -0.633449673652648926
1.01976990699768066 -0.340764343738555908 -0.401303976774215698
1.75855255126953125 1.47854650020599365 0.650370419025421143
2.15106701850891113 0.647346973419189453 -0.369324445724487305
-0.780456066131591797 -0.211875081062316895 -0.514746248722076416
0.043799377977848053 0.0180235952138900757 -1.6156613826751709
-1.12018334865570068 -0.674523532390594482 -0.733812212944030762
-0.249855190515518188 0.533226072788238525 0.353175997734069824
1.23927795886993408 -1.08723735809326172 -1.62459433078765869
0.880153000354766846 -0.241568058729171753 0.0779371187090873718
-0.851236701011657715 -0.429328739643096924 -0.633395671844482422
0.567323029041290283 0.855950534343719482 1.25190865993499756
0.0220682993531227112 -1.41976642608642578 0.358798801898956299
0.145591035485267639 -0.0656641274690628052 -0.424231886863708496
1.56586706638336182 -0.140207350254058838 0.234457552433013916
0.748161494731903076 1.49989187717437744 0.837585806846618652
-0.764955401420593262 -0.852401137351989746 0.186284512281417847
0.416609048843383789 0.376500755548477173 -0.845559775829315186
-0.480595886707305908 0.460170269012451172 0.828781068325042725
0.16396273672580719 0.205942422151565552 0.135491102933883667
-0.133422642946243286 0.478668957948684692 0.929400742053985596
-0.858426213264465332 -0.00714518129825592041 1.15701067447662354
-0.210296839475631714 -0.77164691686630249 0.0830769166350364685
-0.81294715404510498 -1.0658109188079834 0.564939141273498535
1.33594357967376709 0.156645357608795166 0.510236978530883789
-0.227456271648406982 1.80494499206542969 0.254777193069458008
0.845252692699432373 -0.0258972421288490295 0.199766248464584351
-0.696980297565460205 0.990187644958496094 -0.407201588153839111
0.256031185388565063 0.0471923723816871643 -0.636239528656005859
-1.34365570545196533 0.173639968037605286 -0.849972546100616455
0.0615793727338314056 -0.16132354736328125 -2.09659337997436523e-05
-0.700957894325256348 0.00860575586557388306 0.622806787490844727
-0.539957106113433838 -0.860058844089508057 0.512356400489807129
-1.11444973945617676 0.332034289836883545 -0.928660273551940918
0.134880632162094116 1.70902371406555176 -0.510447084903717041
-0.28684699535369873 0.101407155394554138 -0.0516634285449981689
0.121141426265239716 -1.02464175224304199 -1.231964111328125
0.772887170314788818 -1.22856926918029785 1.13921844959259033
-0.227572172880172729 1.59083139896392822 1.65105855464935303
1.26005935668945312 0.250340640544891357 -0.490228742361068726
0.718054294586181641 0.588932335376739502 0.797649204730987549
0.812944889068603516 0.416886627674102783 -0.997130453586578369
0.462043076753616333 -1.60843038558959961 -0.917579054832458496
-0.481766432523727417 -0.0219425857067108154 -0.958353042602539062
0.677975833415985107 0.840583384037017822 -0.288610905408859253
-0.394260704517364502 -0.994045853614807129 -0.246996164321899414
-0.0290858596563339233 0.304498434066772461 1.33247745037078857
-0.708482325077056885 -0.420584261417388916 0.853095114231109619
0.741033077239990234 -0.107418879866600037 0.157019168138504028
-0.845062375068664551 0.00256484746932983398 1.53490555286407471
1.52869868278503418 0.676652252674102783 1.27382397651672363
-0.313577353954315186 -0.309008181095123291 0.186097115278244019
0.0408678464591503143 0.0722476094961166382 -1.01915585994720459
0.894616782665252686 0.11723877489566803 -0.73166191577911377
-0.579365789890289307 0.436461150646209717 0.719703376293182373
-0.536500513553619385 -1.85532915592193604 2.12354087829589844
0.99391484260559082 1.15147888660430908 -1.99362528324127197
0.570518136024475098 1.03654038906097412 1.81621801853179932
0.560321331024169922 -0.161600202322006226 0.443807899951934814
-0.436498045921325684 0.833761334419250488 -0.400440603494644165
0.888799905776977539 1.13799989223480225 -0.267120063304901123
0.185666352510452271 0.555265963077545166 -0.143666833639144897
-0.613986194133758545 -0.907464265823364258 -1.3018651008605957
0.800807952880859375 1.10212147235870361 -0.330481052398681641
0.149095088243484497 -0.0878465622663497925 0.219724595546722412
-0.580452263355255127 -1.63091981410980225 -0.0943292826414108276
-1.43907713890075684 -0.673866927623748779 -0.308910548686981201
0.364744305610656738 2.01892662048339844 -0.172348529100418091
0.434604048728942871 -2.67481040954589844 -0.684989511966705322
-0.64593040943145752 -1.89940977096557617 0.259938657283782959
0.835283339023590088 -0.692600548267364502 -0.615171968936920166
0.00758485496044158936 -0.442839324474334717 1.64620041847229004
0.0255400389432907104 0.727848470211029053 -0.842702865600585938
-0.87238466739654541 -1.02946937084197998 0.248624801635742188
0.0752654597163200378 0.578562438488006592 1.17277383804321289
0.797893524169921875 0.246859326958656311 1.0351862907409668
-0.0339981168508529663 -0.868125557899475098 0.371599078178405762
-1.07040750980377197 -0.796399533748626709 -0.65652996301651001
-1.45937073230743408 0.513984084129333496 -0.633398175239562988
1.2980576753616333 -3.39912748336791992 -0.345239698886871338
0.576125681400299072 1.02938163280487061 1.51842665672302246
0.428700655698776245 -0.571119427680969238 0.0255481153726577759
0.351406306028366089 -0.00967250019311904907 0.586245298385620117
-0.098947376012802124 -0.315564870834350586 -0.286755621433258057
-2.54598569869995117 -2.07714366912841797 -1.62415957450866699
-0.776739120483398438 0.349615395069122314 1.41255831718444824
0.603634476661682129 -0.24825325608253479 1.23484325408935547
-1.21511900424957275 0.404289811849594116 0.536296069622039795
1.54329550266265869 1.01794314384460449 0.205102190375328064
1.79364049434661865 0.0801598429679870605 -0.524327695369720459
-0.992569088935852051 -0.295906722545623779 -1.17802071571350098
0.599677443504333496 0.758180916309356689 1.31607389450073242
-0.103874720633029938 -1.11809134483337402 0.648884117603302002
1.3325580358505249 0.0935750305652618408 -1.72981941699981689
0.774102151393890381 1.93044734001159668 -2.31650042533874512
-1.3982703685760498 0.316511809825897217 -1.38251125812530518
-0.131496518850326538 -0.0805009305477142334 0.304738610982894897
0.735327720642089844 -0.863266825675964355 -0.766110360622406006
-0.696151196956634521 0.65747225284576416 1.48548018932342529
0.628381013870239258 0.567836940288543701 0.374140501022338867
0.610959649085998535 1.40748298168182373 -0.433092832565307617
-0.769889652729034424 -1.69531762599945068 -0.727556526660919189
0.760665953159332275 0.0435266047716140747 -2.28573799133300781
-0.751720905303955078 -0.188842639327049255 -1.75400876998901367
0.672243118286132812 1.09165430068969727 -1.10065007209777832
0.299122750759124756 0.230316132307052612 0.704174220561981201
1.17853450775146484 -0.154555648565292358 -0.116758145391941071
0.969821810722351074 -0.657011687755584717 0.30882418155670166
0.767193436622619629 0.746926069259643555 0.22840842604637146
2.14158082008361816 0.527391672134399414 -1.83718252182006836
1.30149614810943604 -0.501620650291442871 1.11315929889678955
-0.024730488657951355 -0.00344901531934738159 -0.283594310283660889
0.152352988719940186 -0.918829381465911865 -0.230123788118362427
1.23237550258636475 0.0213261321187019348 -0.185963481664657593
0.04824056476354599 1.20577859878540039 -1.6249765157699585
-1.42817533016204834 0.038892112672328949 1.0372774600982666
1.25592076778411865 -1.08820092678070068 1.88957726955413818
1.66109228134155273 0.0991547778248786926 0.964070618152618408
1.01909875869750977 -1.60300648212432861 -0.289276450872421265
1.48494589328765869 0.0860624909400939941 -0.0838350579142570496
1.22548234462738037 -1.25242650508880615 0.208953440189361572
-0.13428729772567749 0.270506083965301514 0.801452398300170898
0.567365765571594238 -1.03952515125274658 -0.113544180989265442
0.679109811782836914 -0.508940339088439941 0.823178350925445557
0.822226822376251221 0.515338420867919922 1.36504256725311279
0.663099050521850586 1.25524914264678955 0.036222606897354126
0.336655110120773315 -0.374376207590103149 0.394238710403442383
-0.0653113797307014465 -0.952035248279571533 0.357691586017608643
0.765349447727203369 -0.523676812648773193 0.878954827785491943
0.455675810575485229 -0.641746401786804199 -1.72966909408569336
0.0944437980651855469 1.4520878791809082 0.750536262989044189
0.513167977333068848 0.319156676530838013 -1.88540506362915039
0.413302630186080933 -0.788032650947570801 -1.23635697364807129
-0.125733628869056702 1.97149133682250977 -0.372227847576141357
0.0942549258470535278 1.03474569320678711 -0.791423439979553223
0.821015298366546631 -0.715578794479370117 -0.838627994060516357
0.661451280117034912 -0.894330263137817383 -0.211351335048675537
-1.48837912082672119 -1.85448157787322998 0.436717689037322998
-0.511329531669616699 -0.624522268772125244 -2.60022687911987305
0.803637146949768066 1.00410687923431396 0.315947949886322021
0.675091743469238281 -0.0944388732314109802 0.447241485118865967
1.41280984878540039 -0.29458242654800415 1.62810313701629639
-0.22463168203830719 0.47118455171585083 -1.08699727058410645
-0.411423355340957642 0.449759721755981445 0.38034522533416748
-0.229484111070632935 1.33421158790588379 0.787400603294372559
-0.384107410907745361 -2.49945545196533203 -1.27067899703979492
-1.30910801887512207 -0.980300843715667725 -0.807905256748199463
0.750304520130157471 -2.45127487182617188 -0.556606650352478027
1.18728172779083252 -0.418323874473571777 -0.0313563719391822815
-0.483492821455001831 -0.920599460601806641 -0.663172602653503418
0.578725457191467285 -0.0854186713695526123 2.5815279483795166
-1.00300979614257812 0.279810667037963867 -0.704267978668212891
0.634957969188690186 -1.03377223014831543 -0.532866775989532471
-0.852988064289093018 -1.08936572074890137 0.723016142845153809
-0.275023877620697021 0.0436723195016384125 -2.72453403472900391
-0.136511996388435364 0.469235599040985107 0.247128158807754517
0.482231080532073975 -0.257447123527526855 -1.84347915649414062
-1.35001850128173828 -0.405575782060623169 1.3631819486618042
-0.0543529540300369263 0.349621772766113281 1.74427735805511475
0.579100251197814941 1.63255095481872559 -0.355042815208435059
1.27121913433074951 -1.3395531177520752 2.55079960823059082
-0.847142159938812256 -1.57169842720031738 -0.582476675510406494
-0.743037819862365723 -1.10057961940765381 1.02579426765441895
0.949250638484954834 -0.662815630435943604 -1.37038350105285645
1.9472881555557251 -0.599665641784667969 -1.6386185884475708
1.03760814666748047 0.665112912654876709 -0.462016761302947998
0.36608549952507019 -1.14906489849090576 -2.25301980972290039
-1.0828171968460083 -0.265814989805221558 0.932646274566650391
0.134630709886550903 0.208401709794998169 -0.206286609172821045
1.57297790050506592 0.838271498680114746 -0.228128373622894287
0.397119045257568359 0.8353767991065979 1.54241561889648438
1.49832046031951904 -0.124579824507236481 -0.977002382278442383
0.389115750789642334 -1.03519594669342041 0.492465555667877197
-0.0898328423500061035 -0.499709248542785645 -0.24126732349395752
0.668847322463989258 -0.699536681175231934 1.38642549514770508
-1.8745725154876709 -0.424995779991149902 -2.10154604911804199
0.432686805725097656 -0.325807154178619385 -0.370294958353042603
0.157830089330673218 0.639333784580230713 0.460839211940765381
-0.351417690515518188 0.859668910503387451 0.946715176105499268
-0.804773449897766113 2.09637570381164551 1.80999386310577393
0.721679925918579102 0.373784363269805908 -1.94487428665161133
-0.0131843164563179016 -0.816903412342071533 -0.117298685014247894
0.480240225791931152 -0.431609362363815308 0.450555860996246338
0.906834781169891357 0.439010322093963623 -0.685982584953308105
0.889096319675445557 -0.703724265098571777 -0.444537639617919922
0.528688728809356689 1.34814834594726562 0.6281280517578125
0.601720869541168213 0.264081090688705444 1.57040488719940186
-0.0967729091644287109 -1.7213437557220459 -0.434217453002929688
0.368829727172851562 1.77632749080657959 -1.69148540496826172
-1.37010669708251953 0.718382298946380615 1.31762480735778809
-0.0238883495330810547 0.0921609774231910706 -1.75037038326263428
0.848207592964172363 0.193013787269592285 -0.510437130928039551
0.972315013408660889 1.14679050445556641 0.170864537358283997
0.711878120899200439 0.194012969732284546 0.277707070112228394
-0.211418464779853821 -0.139794781804084778 0.669489264488220215
-0.344234108924865723 -0.0829998552799224854 -0.181687712669372559
-0.776105105876922607 0.728378534317016602 -0.646568536758422852
-2.27738094329833984 0.684229731559753418 0.551066040992736816
0.132836401462554932 1.19182884693145752 -0.380184292793273926
-0.371530115604400635 0.715134978294372559 0.0512518808245658875
1.31536853313446045 0.296927452087402344 0.892700314521789551
0.608010172843933105 0.463525891304016113 -3.22598624229431152
0.00792825222015380859 -0.851199865341186523 2.03031182289123535
0.117996811866760254 -1.14753735065460205 -1.2201838493347168
0.346777677536010742 -0.5967254638671875 0.261048078536987305
0.83986055850982666 -0.122963063418865204 -0.524108767509460449
-0.44205281138420105 -1.53419256210327148 0.177973195910453796
0.0498372539877891541 -0.611307740211486816 1.12227892875671387
-0.485338687896728516 -0.361642301082611084 -0.00428869575262069702
-0.178519666194915771 -0.801137030124664307 1.55197548866271973
0.782997012138366699 -0.866360604763031006 -0.480927050113677979
-0.390815079212188721 -1.21503663063049316 0.703994989395141602
-1.32922220230102539 -0.310078233480453491 -0.995962142944335938
0.668829202651977539 -0.0108459964394569397 0.33650130033493042
0.784541904926300049 -0.590781986713409424 -0.501009106636047363
0.427785724401473999 -0.238465011119842529 0.209475263953208923
1.03419935703277588 -1.42215061187744141 0.268255352973937988
0.413473516702651978 -1.24102091789245605 0.804275393486022949
0.151775732636451721 -0.123422294855117798 0.240110874176025391
1.28066468238830566 -0.28615298867225647 0.322475910186767578
0.790254175662994385 -0.0627794265747070312 -0.261753708124160767
0.130876198410987854 0.995407283306121826 -0.842956662178039551
-0.410789638757705688 1.86661088466644287 0.49439123272895813
-0.0660137757658958435 -1.43998074531555176 -0.0220140367746353149
-0.521574437618255615 1.18550777435302734 0.550956368446350098
0.33471912145614624 -0.715452313423156738 -1.08809471130371094
0.581772685050964355 -0.660703122615814209 0.408592194318771362
-1.04222738742828369 0.34760361909866333 0.514085769653320312
0.400259345769882202 0.884172439575195312 2.05846786499023438
-0.192461937665939331 -0.581391453742980957 -1.79665231704711914
1.03188049793243408 0.275328904390335083 0.211322784423828125
1.36397922039031982 -0.366536974906921387 0.648746073246002197
-0.179035484790802002 -0.527235865592956543 0.438747107982635498
0.906636476516723633 2.18599820137023926 2.47814416885375977
0.884280204772949219 0.0288831740617752075 1.52787661552429199
0.724528729915618896 -0.256154477596282959 -0.196168065071105957
0.699229240417480469 0.885820269584655762 0.312602430582046509
-0.649045705795288086 1.70131516456604004 -0.0507835894823074341
0.0947227701544761658 -0.255185216665267944 1.16554570198059082
0.680678844451904297 0.688295602798461914 -0.200123459100723267
1.41925561428070068 0.0253212898969650269 -0.517641425132751465
0.265888303518295288 0.349673628807067871 0.426703870296478271
-1.28152036666870117 1.835715651512146 -1.11079192161560059
0.762826979160308838 0.0668492689728736877 1.92339396476745605
0.669749915599822998 1.17658710479736328 0.825562536716461182
1.32307875156402588 -0.701028883457183838 0.0428190603852272034
-0.780128955841064453 -0.146621972322463989 1.17768216133117676
-0.316789746284484863 0.0888515561819076538 -0.481891036033630371
0.014994300901889801 0.196934029459953308 0.312038540840148926
1.38326895236968994 -0.765532433986663818 0.242960184812545776
0.521306157112121582 0.0510851442813873291 -0.303524196147918701
0.074303552508354187 1.47489416599273682 0.269603848457336426
0.574186384677886963 1.11533033847808838 -0.417511880397796631
-0.318479835987091064 0.490641355514526367 -0.0119142085313796997
-1.28655672073364258 0.858117938041687012 -0.216043859720230103
1.42156195640563965 1.33922100067138672 1.13421475887298584
1.13521671295166016 2.00271987915039062 -0.089569091796875
-0.311586201190948486 0.399911075830459595 0.477308273315429688
0.180850088596343994 -1.6118779182434082 0.494067668914794922
1.29973459243774414 0.592315435409545898 -0.408774495124816895
-0.258956611156463623 0.1870766282081604 -0.669980525970458984
1.05565857887268066 -0.58729255199432373 -2.31999874114990234
0.530971527099609375 0.76741403341293335 0.182965189218521118
0.015737287700176239 -0.132845044136047363 -0.0889986753463745117
1.20806550979614258 -0.428259164094924927 1.25943088531494141
1.13243865966796875 0.923903584480285645 -1.45766282081604004
0.581985294818878174 -1.31434488296508789 -0.323604196310043335
0.839521646499633789 -1.65687620639801025 0.644360959529876709
1.5932842493057251 0.458499163389205933 -1.56652605533599854
0.735881447792053223 0.747679591178894043 -0.642951130867004395
0.0333461612462997437 0.98380887508392334 0.915479481220245361
0.155531629920005798 -0.201711088418960571 0.0667661502957344055
0.324720948934555054 0.127182751893997192 0.271478652954101562
0.0622644014656543732 -1.17993736267089844 0.219304308295249939
-0.573331058025360107 1.73424017429351807 1.13827109336853027
-0.050351463258266449 0.781647026538848877 0.0137198120355606079
0.635443031787872314 0.53145754337310791 -0.14546377956867218
0.338437765836715698 -0.655026495456695557 0.307068228721618652
0.0265482589602470398 -0.899402737617492676 0.289817452430725098
-1.33592534065246582 -0.87539827823638916 -0.0879014432430267334
1.90603959560394287 0.4281463623046875 -0.165132120251655579
2.71396565437316895 -0.884360253810882568 1.27449154853820801
1.0631479024887085 1.24822795391082764 0.689549684524536133
1.22531473636627197 0.158962845802307129 -1.74250102043151855
-0.280342012643814087 0.728795528411865234 1.04282820224761963
0.847527921199798584 0.87062913179397583 -0.0341691896319389343
0.306713789701461792 0.294565171003341675 -0.229430481791496277
0.755334138870239258 -0.374780744314193726 -0.811093807220458984
0.272371262311935425 -0.0444100871682167053 0.237274020910263062
-1.81957638263702393 0.773544490337371826 0.614020586013793945
0.0545016638934612274 -0.155602902173995972 0.0409120097756385803
0.166050255298614502 -0.04489179328083992 0.755965113639831543
-0.4758262038230896 -0.766337454319000244 0.9117584228515625
0.731898844242095947 -1.3704754114151001 -1.62126803398132324
0.917778611183166504 0.5199546217918396 -0.927313745021820068
1.12990200519561768 0.133308365941047668 -0.745947778224945068
0.466329038143157959 1.10961544513702393 -1.38445138931274414
1.67923057079315186 -0.358668595552444458 -0.247742772102355957
0.812333822250366211 0.206540226936340332 -0.0542158633470535278
-1.13527810573577881 1.03125178813934326 0.249754294753074646
-0.516405463218688965 -1.1815338134765625 -0.00636788457632064819
-0.81604468822479248 2.29757475852966309 2.54109883308410645
0.977533936500549316 -0.0231605768203735352 0.916692256927490234
0.257880449295043945 0.0739625245332717896 0.648440420627593994
-0.0508335679769515991 0.227632224559783936 -0.0778397992253303528
0.0318460986018180847 0.889924347400665283 -0.483985453844070435
-0.6291312575340271 0.0285152196884155273 1.03670668601989746
-0.234859362244606018 0.713179528713226318 -0.696810781955718994
0.636239945888519287 -1.94979143142700195 0.851503431797027588
-0.566856622695922852 0.987168073654174805 0.655307650566101074
0.35081443190574646 1.49081802368164062 -0.165260881185531616
-1.18763744831085205 -1.14238429069519043 0.0787255987524986267
-0.0303376317024230957 1.23324179649353027 -0.342173010110855103
-1.46692705154418945 0.93609851598739624 0.590621829032897949
0.0778790563344955444 0.00176665186882019043 0.940313577651977539
0.514921605587005615 -1.70513224601745605 0.607150077819824219
1.20289468765258789 2.18345212936401367 0.464800417423248291
-0.441467851400375366 1.00787615776062012 -0.751391828060150146
0.0875944942235946655 0.931527972221374512 0.370564043521881104
-0.0588176548480987549 -0.215531617403030396 -0.846499383449554443
0.140325933694839478 0.853331923484802246 -0.299336403608322144
0.497014999389648438 -0.664209365844726562 -0.870945215225219727
-0.18202674388885498 0.77800142765045166 0.128124833106994629
-0.539873480796813965 -1.43564224243164062 -0.546953380107879639
-2.0792851448059082 -0.592075049877166748 0.524059534072875977
-0.487065941095352173 0.851240217685699463 0.313180983066558838
-2.41550850868225098 -1.57012653350830078 -0.0112023055553436279
-0.371232867240905762 1.45023143291473389 0.248024791479110718
0.397162288427352905 0.139344558119773865 -0.736792206764221191
-0.582294642925262451 0.20432436466217041 -0.063201025128364563
0.0897469744086265564 1.47426891326904297 0.0889365524053573608
-0.314469248056411743 -0.409837424755096436 -1.05293452739715576
1.18577492237091064 0.769673764705657959 -0.683109045028686523
2.18282365798950195 1.14827597141265869 -0.184565186500549316
-0.504819393157958984 1.26474738121032715 0.0139314085245132446
0.690167009830474854 -0.804126441478729248 -0.189310923218727112
0.171300679445266724 1.16229057312011719 0.240920066833496094
0.64077073335647583 -0.636595487594604492 -0.578036785125732422
-0.796471893787384033 0.880902767181396484 0.435782104730606079
-0.425117582082748413 -1.97882914543151855 0.327101767063140869
2.41094636917114258 0.39090198278427124 0.540761113166809082
-0.954653024673461914 1.2052227258682251 0.530756175518035889
0.144098758697509766 0.961199939250946045 -0.163506597280502319
-0.936041533946990967 0.400651156902313232 -0.317146241664886475
-0.386552125215530396 0.323193579912185669 0.276636898517608643
-0.555941879749298096 -0.814001500606536865 -0.103722952306270599
-2.15357875823974609 0.189728409051895142 -0.769563674926757812
-0.501810371875762939 -0.783830761909484863 -0.36614614725112915
1.42954814434051514 -0.236048132181167603 -1.88896071910858154
-1.1335446834564209 0.0869797319173812866 0.385650604963302612
-0.352336764335632324 0.53158879280090332 -2.92146134376525879
0.841355264186859131 -0.897900402545928955 -0.81816565990447998
0.349858343601226807 1.71953856945037842 1.32452523708343506
1.62198221683502197 0.290415853261947632 -0.924952149391174316
0.0478861033916473389 0.162593990564346313 -0.167233824729919434
-1.05131912231445312 1.79977679252624512 -0.4060496985912323
-0.338896751403808594 0.43126755952835083 -0.644099116325378418
0.342620193958282471 -0.927999377250671387 0.43416672945022583
-0.187936305999755859 -1.10898494720458984 -1.01263260841369629
-0.503117501735687256 0.055948309600353241 -0.99410557746887207
0.48072931170463562 0.206568777561187744 0.955326676368713379
0.0479682162404060364 0.668270528316497803 -0.543462216854095459
-1.07985436916351318 -0.509506881237030029 -0.0671517029404640198
1.74644696712493896 -0.370740294456481934 1.93236064910888672
0.18290257453918457 2.17070388793945312 -1.49820661544799805
0.0247987955808639526 -0.594532430171966553 -0.00798009335994720459
1.29921150207519531 -0.184702187776565552 0.383201181888580322
-0.00237099826335906982 0.0367427021265029907 -1.03472912311553955
-0.114529386162757874 -0.669513463973999023 0.207572400569915771
-0.154576808214187622 0.00371018797159194946 -1.18345880508422852
-1.8706744909286499 -2.0949249267578125 -0.14032253623008728
-0.892428994178771973 0.191474616527557373 0.327644765377044678
-0.178162038326263428 -0.916175901889801025 -0.217404067516326904
0.759652316570281982 1.36642932891845703 -0.210384473204612732
0.622274279594421387 -0.209717065095901489 0.625593602657318115
0.349628150463104248 0.974995553493499756 0.465411633253097534
-0.423286974430084229 -0.0873258188366889954 1.35652697086334229
0.439327746629714966 0.414067268371582031 -2.2961723804473877
-0.16513332724571228 0.296295017004013062 0.717050254344940186
