ply
format ascii 1.0
element vertex 731
comment vertices
property float x
property float y
property float z
end_header
-0.367099344730377197 0.0174978729337453842 -0.384115666151046753
0.412231415510177612 -0.0941603109240531921 -0.145160987973213196
-0.367707729339599609 0.0686904117465019226 -0.387584656476974487
-0.365981906652450562 0.0606460385024547577 -0.3831787109375
0.4019145667552948 -0.0945496484637260437 -0.171319127082824707
0.126358732581138611 -0.179070144891738892 -0.401181876659393311
-0.333811581134796143 -0.039705280214548111 -0.396108716726303101
0.428546816110610962 -0.104613125324249268 -0.181062787771224976
-0.096554294228553772 -0.108519978821277618 -0.406681656837463379
-0.364346146583557129 0.0838383808732032776 -0.382302075624465942
0.410082519054412842 -0.0860921144485473633 -0.146898329257965088
-0.375084251165390015 0.102370403707027435 -0.358846932649612427
0.409803539514541626 -0.0972412899136543274 -0.160999700427055359
-0.375366181135177612 0.119031116366386414 -0.326337635517120361
-0.349489718675613403 -0.0315017402172088623 -0.399747490882873535
0.243692278861999512 -0.166449666023254395 -0.359597951173782349
-0.00395911931991577148 -0.138445392251014709 -0.427430957555770874
-0.375075310468673706 0.100576519966125488 -0.357485353946685791
-0.0759402066469192505 -0.121027246117591858 -0.409094810485839844
0.460046291351318359 -0.0217443089932203293 -0.0837317630648612976
0.324529737234115601 -0.138186946511268616 -0.282822519540786743
0.347967684268951416 -0.13646213710308075 -0.312898129224777222
0.295025557279586792 -0.148812711238861084 -0.328977465629577637
-0.112306192517280579 -0.116314150393009186 -0.429656714200973511
0.365103811025619507 -0.137239366769790649 -0.286514014005661011
0.171180546283721924 -0.160201564431190491 -0.386558681726455688
0.0655216425657272339 -0.144127652049064636 -0.414542198181152344
0.102048270404338837 -0.14562050998210907 -0.408557087182998657
-0.38108450174331665 0.0176796708256006241 -0.388014018535614014
0.041117541491985321 -0.144898965954780579 -0.423880130052566528
-0.374803632497787476 0.0611493252217769623 -0.396140784025192261
0.46455034613609314 -0.0681367367506027222 -0.119411170482635498
0.376101553440093994 -0.111800312995910645 -0.210256963968276978
-0.374317944049835205 -0.000741033116355538368 -0.396817177534103394
0.206009611487388611 -0.172117456793785095 -0.375873565673828125
0.393967390060424805 -0.0976116135716438293 -0.197501018643379211
0.301475077867507935 -0.163082316517829895 -0.350819438695907593
-0.367183208465576172 0.0858152955770492554 -0.36297038197517395
0.110135644674301147 -0.141704842448234558 -0.412334084510803223
0.134157121181488037 -0.161630183458328247 -0.422641903162002563
0.457520425319671631 -0.017821749672293663 -0.106328912079334259
0.365235298871994019 -0.117544904351234436 -0.222883209586143494
0.325693190097808838 -0.14293941855430603 -0.277125149965286255
0.00305845006369054317 -0.142201513051986694 -0.434191048145294189
-0.259056687355041504 -0.0855197980999946594 -0.407055377960205078
-0.0508575551211833954 -0.133486479520797729 -0.417200714349746704
-0.313546806573867798 -0.062414076179265976 -0.394064903259277344
-0.329162031412124634 -0.0628663673996925354 -0.397725313901901245
0.464804768562316895 -0.0193541776388883591 -0.0750219225883483887
0.44506409764289856 -0.0952440276741981506 -0.130998954176902771
0.430631548166275024 -0.0605273619294166565 -0.112709194421768188
0.437132865190505981 -0.07260894775390625 -0.0986703410744667053
0.428881853818893433 -0.107807233929634094 -0.178027361631393433
0.384584814310073853 -0.103039838373661041 -0.193926632404327393
-0.240961253643035889 -0.10043007880449295 -0.414914846420288086
-0.371664464473724365 0.0804877728223800659 -0.38236662745475769
0.243925407528877258 -0.169743433594703674 -0.374736994504928589
-0.36950528621673584 0.109156578779220581 -0.336771696805953979
-0.38355487585067749 0.0180740263313055038 -0.392648518085479736
-0.0145979486405849457 -0.115114703774452209 -0.422920107841491699
0.44909900426864624 -0.0950567051768302917 -0.149270519614219666
-0.30800214409828186 -0.0707074031233787537 -0.387703150510787964
0.455363810062408447 -0.0170920509845018387 -0.102529130876064301
-0.341789901256561279 -0.0233590472489595413 -0.400033116340637207
0.425609081983566284 -0.0825955495238304138 -0.110877558588981628
-0.313182830810546875 -0.0656431019306182861 -0.397712796926498413
0.0602302663028240204 -0.140587836503982544 -0.418909162282943726
0.423262715339660645 -0.0759928897023200989 -0.109174922108650208
0.173523351550102234 -0.1703529953956604 -0.395413815975189209
-0.28080439567565918 -0.0731795430183410645 -0.406005352735519409
0.420538604259490967 -0.0715947970747947693 -0.121074140071868896
-0.374425709247589111 0.137883827090263367 -0.295019567012786865
-0.381249666213989258 0.132278859615325928 -0.316705167293548584
0.365842759609222412 -0.145394176244735718 -0.289785206317901611
0.367565840482711792 -0.148331031203269958 -0.283508569002151489
0.186408862471580505 -0.167285934090614319 -0.412435919046401978
-0.358446002006530762 0.121942281723022461 -0.332001596689224243
-0.0500502921640872955 -0.121841959655284882 -0.426166534423828125
0.35608905553817749 -0.13597501814365387 -0.256764203310012817
-0.18548138439655304 -0.0890711545944213867 -0.420969486236572266
-0.152633592486381531 -0.0945338979363441467 -0.41559329628944397
-0.372114449739456177 0.117942281067371368 -0.322252213954925537
-0.37029266357421875 0.0781594216823577881 -0.380182772874832153
-0.368482351303100586 0.0700208321213722229 -0.375926375389099121
-0.374705255031585693 0.106476590037345886 -0.358521074056625366
-0.0775595903396606445 -0.124599277973175049 -0.410423845052719116
0.358833402395248413 -0.149919226765632629 -0.283872783184051514
0.363357394933700562 -0.151411369442939758 -0.281581014394760132
-0.358835279941558838 0.111657410860061646 -0.328974545001983643
-0.124441675841808319 -0.103611841797828674 -0.410638809204101562
0.332532256841659546 -0.160587996244430542 -0.311191707849502563
0.464318186044692993 -0.0673172175884246826 -0.110548026859760284
-0.194924771785736084 -0.0865203514695167542 -0.420503050088882446
-0.172601059079170227 -0.112302616238594055 -0.424825578927993774
-0.312083065509796143 -0.0544722601771354675 -0.393375098705291748
0.136237263679504395 -0.160260289907455444 -0.409204721450805664
0.201387301087379456 -0.155760511755943298 -0.403531700372695923
0.419927090406417847 -0.0820644348859786987 -0.128406420350074768
-0.357855647802352905 0.123769775032997131 -0.316701263189315796
0.115544214844703674 -0.158136323094367981 -0.428038120269775391
0.182083800435066223 -0.153715237975120544 -0.406186312437057495
-0.356574147939682007 -0.0241864435374736786 -0.397074967622756958
-0.320419251918792725 -0.0631611570715904236 -0.388626515865325928
-0.374020963907241821 0.0741188153624534607 -0.364497721195220947
0.407940477132797241 -0.106467820703983307 -0.220220044255256653
0.464927494525909424 -0.0775590315461158752 -0.1271095871925354
0.44712454080581665 -0.0343071520328521729 -0.101935766637325287
-0.374443888664245605 -0.00476993853226304054 -0.399122387170791626
0.300041645765304565 -0.149074628949165344 -0.316640913486480713
-0.347523152828216553 -0.0434655249118804932 -0.393946349620819092
0.289209753274917603 -0.164702996611595154 -0.353350251913070679
0.454344391822814941 -0.0235270801931619644 -0.0828270688652992249
0.20297616720199585 -0.166191741824150085 -0.373442173004150391
0.464150220155715942 -0.0756468251347541809 -0.0991963371634483337
0.421684354543685913 -0.0957931578159332275 -0.204532787203788757
-0.221141725778579712 -0.106909923255443573 -0.425571352243423462
0.417015582323074341 -0.113590031862258911 -0.201711967587471008
-0.361826598644256592 0.0970447808504104614 -0.365233838558197021
0.420447766780853271 -0.116235584020614624 -0.205329209566116333
0.453649133443832397 -0.0239548739045858383 -0.101723641157150269
0.444035440683364868 -0.0949128493666648865 -0.147125706076622009
-0.230983242392539978 -0.0908437296748161316 -0.424140781164169312
-0.371359795331954956 0.100773602724075317 -0.348700493574142456
-0.171126842498779297 -0.0891485586762428284 -0.427010923624038696
0.46233290433883667 -0.0118654593825340271 -0.0935676842927932739
0.438528180122375488 -0.0549575313925743103 -0.0956009924411773682
-0.374288558959960938 0.10582251101732254 -0.344940125942230225
0.461566835641860962 -0.0709866657853126526 -0.127865105867385864
0.394627630710601807 -0.118687741458415985 -0.194618776440620422
-0.375670164823532104 0.0232463739812374115 -0.408697158098220825
0.399743407964706421 -0.103317521512508392 -0.181019201874732971
-0.0128520224243402481 -0.115042515099048615 -0.415210694074630737
0.179055124521255493 -0.157036781311035156 -0.412747621536254883
0.453797966241836548 -0.0729858800768852234 -0.137593448162078857
0.419518828392028809 -0.101628594100475311 -0.209802284836769104
-0.365671992301940918 0.129162296652793884 -0.332103729248046875
-0.197953760623931885 -0.103283196687698364 -0.434099495410919189
-0.363821566104888916 0.0956618264317512512 -0.352346718311309814
0.214067444205284119 -0.154195100069046021 -0.38035351037979126
-0.250131130218505859 -0.09719124436378479 -0.417220979928970337
-0.177665770053863525 -0.0984319746494293213 -0.413493335247039795
-0.202667981386184692 -0.106275476515293121 -0.409470617771148682
-0.0594350174069404602 -0.129370704293251038 -0.425351798534393311
0.149949237704277039 -0.171670407056808472 -0.404084146022796631
-0.369107693433761597 0.126740902662277222 -0.294764548540115356
-0.0508315451443195343 -0.107856325805187225 -0.424147367477416992
-0.318087011575698853 -0.0660498663783073425 -0.388104528188705444
0.363505959510803223 -0.136189773678779602 -0.242649704217910767
0.35988318920135498 -0.143165543675422668 -0.254880636930465698
-0.336634069681167603 -0.017861388623714447 -0.39266619086265564
0.445738047361373901 -0.0179707948118448257 -0.108221247792243958
-0.350349098443984985 -0.0492116250097751617 -0.393764287233352661
-0.36865273118019104 0.083639681339263916 -0.365519046783447266
-0.356793761253356934 0.113017983734607697 -0.348449647426605225
0.0757899507880210876 -0.159048765897750854 -0.42820662260055542
0.0734477639198303223 -0.155254870653152466 -0.430566012859344482
-0.356895476579666138 0.11259172111749649 -0.344600051641464233
0.0564256459474563599 -0.141098320484161377 -0.433861523866653442
-0.121555380523204803 -0.113913595676422119 -0.433599174022674561
0.0680828690528869629 -0.148040935397148132 -0.414418309926986694
0.134512200951576233 -0.168759971857070923 -0.419254809617996216
0.231284767389297485 -0.165595248341560364 -0.39036327600479126
0.341274112462997437 -0.136449962854385376 -0.314279049634933472
-0.311121672391891479 -0.0498523227870464325 -0.392282992601394653
0.450483828783035278 -0.0704927518963813782 -0.138470277190208435
-0.357164114713668823 0.104080885648727417 -0.370728164911270142
0.293887466192245483 -0.142964869737625122 -0.329950541257858276
0.376670777797698975 -0.121709719300270081 -0.2165260910987854
0.371495306491851807 -0.134058758616447449 -0.23807843029499054
0.0719627216458320618 -0.136315688490867615 -0.41291344165802002
-0.176754876971244812 -0.0902197062969207764 -0.419925689697265625
0.190080821514129639 -0.154565304517745972 -0.404139250516891479
0.358088642358779907 -0.138767421245574951 -0.25372016429901123
0.313414692878723145 -0.16769196093082428 -0.316572695970535278
-0.101102553308010101 -0.109559409320354462 -0.406453579664230347
0.287932664155960083 -0.144819632172584534 -0.339586079120635986
0.419402569532394409 -0.117490388453006744 -0.195699304342269897
0.208502814173698425 -0.16664472222328186 -0.373186618089675903
-0.379750937223434448 0.0535444021224975586 -0.375245213508605957
0.0162500590085983276 -0.124980255961418152 -0.42960771918296814
0.428963631391525269 -0.0885321870446205139 -0.120776757597923279
-0.378741055727005005 0.0232798904180526733 -0.405533820390701294
0.107719741761684418 -0.152605563402175903 -0.405485391616821289
-0.365650534629821777 0.0334794297814369202 -0.392243415117263794
0.294001311063766479 -0.150639042258262634 -0.325711756944656372
0.27737012505531311 -0.163113817572593689 -0.339331358671188354
0.399660080671310425 -0.1122775599360466 -0.186633750796318054
0.357522726058959961 -0.135378152132034302 -0.298845946788787842
-0.0412409007549285889 -0.127113059163093567 -0.429805725812911987
0.458206057548522949 -0.0634247511625289917 -0.0912111997604370117
-0.374265491962432861 0.0433768033981323242 -0.39084431529045105
-0.140276521444320679 -0.105983659625053406 -0.416774839162826538
0.14358946681022644 -0.167142897844314575 -0.416560173034667969
-0.315631002187728882 -0.0457493960857391357 -0.402102798223495483
0.372820138931274414 -0.132909044623374939 -0.234265074133872986
-0.00635401112958788872 -0.127680510282516479 -0.41163337230682373
-0.269065797328948975 -0.0964228808879852295 -0.404193848371505737
0.330018132925033569 -0.160483419895172119 -0.315769612789154053
-0.0326297730207443237 -0.116461463272571564 -0.40924498438835144
-0.365511953830718994 0.0723743215203285217 -0.383492112159729004
-0.360705047845840454 0.122583821415901184 -0.33572503924369812
-0.150234803557395935 -0.113435603678226471 -0.413300842046737671
0.313876241445541382 -0.139134302735328674 -0.321124345064163208
0.445781797170639038 -0.0190844908356666565 -0.109455600380897522
0.0362683162093162537 -0.153591364622116089 -0.432334095239639282
-0.027506636455655098 -0.132537588477134705 -0.411572545766830444
-0.338469326496124268 -0.0276132281869649887 -0.381505638360977173
0.121729440987110138 -0.166273757815361023 -0.417667955160140991
-0.316506057977676392 -0.0651655048131942749 -0.387436777353286743
0.269487321376800537 -0.154670193791389465 -0.370550930500030518
0.450879573822021484 -0.0770914256572723389 -0.145842596888542175
0.464225441217422485 -0.0681071653962135315 -0.0992681831121444702
0.425939887762069702 -0.108604766428470612 -0.191788643598556519
0.39172855019569397 -0.122490845620632172 -0.208043888211250305
-0.363770931959152222 -0.0199833996593952179 -0.401490449905395508
0.434420168399810791 -0.0667340680956840515 -0.131997197866439819
0.160802215337753296 -0.166135355830192566 -0.392575472593307495
-0.348614871501922607 -0.030167754739522934 -0.399463415145874023
0.453226864337921143 -0.014122852124273777 -0.109144791960716248
-0.392945915460586548 0.0363529883325099945 -0.404667943716049194
0.110623404383659363 -0.142207294702529907 -0.411218255758285522
-0.3583202064037323 -0.0133940856903791428 -0.39419826865196228
-0.356024503707885742 0.11678815633058548 -0.341717422008514404
-0.373917698860168457 0.004803492221981287 -0.395748376846313477
-0.402213752269744873 0.0715673863887786865 -0.37766304612159729
-0.356637626886367798 0.136606127023696899 -0.291880130767822266
-0.376487076282501221 0.0832961425185203552 -0.364756166934967041
0.144898250699043274 -0.164462357759475708 -0.421956300735473633
0.321290433406829834 -0.161569461226463318 -0.321323961019515991
0.407615125179290771 -0.108898334205150604 -0.224205806851387024
-0.357018232345581055 0.13375169038772583 -0.302110046148300171
-0.365863978862762451 0.121517352759838104 -0.339782297611236572
0.420464396476745605 -0.0792425796389579773 -0.154748573899269104
-0.385925501585006714 0.113554991781711578 -0.342963844537734985
0.454219281673431396 -0.0660855621099472046 -0.127457216382026672
-0.379285544157028198 0.111325979232788086 -0.340772777795791626
0.198002979159355164 -0.174552097916603088 -0.390311092138290405
-0.38426700234413147 0.0226273294538259506 -0.393571376800537109
-0.372995704412460327 0.0628683194518089294 -0.379578620195388794
-0.127105921506881714 -0.105575636029243469 -0.434633910655975342
0.381633013486862183 -0.132604777812957764 -0.237392514944076538
0.339621126651763916 -0.124048031866550446 -0.284300714731216431
0.32315787672996521 -0.133556947112083435 -0.303067058324813843
0.135789573192596436 -0.148840531706809998 -0.421316355466842651
-0.375296592712402344 0.124233856797218323 -0.327452272176742554
-0.0974397584795951843 -0.105265766382217407 -0.431506693363189697
0.464071065187454224 -0.0330299735069274902 -0.0822620317339897156
0.3646811842918396 -0.110320121049880981 -0.218994081020355225
0.419964402914047241 -0.0828195586800575256 -0.127371922135353088
0.298768907785415649 -0.160154521465301514 -0.32213282585144043
-0.267480969429016113 -0.0940363705158233643 -0.416621595621109009
-0.115630194544792175 -0.121279634535312653 -0.423929303884506226
-0.158154487609863281 -0.108245410025119781 -0.413128465414047241
0.444363862276077271 -0.0651416406035423279 -0.132197290658950806
-0.381631791591644287 0.0460224039852619171 -0.381042271852493286
-0.36349603533744812 -0.0199029892683029175 -0.401302725076675415
-0.346903592348098755 -0.000241012283368036151 -0.394164949655532837
0.307061880826950073 -0.166126489639282227 -0.325868189334869385
-0.0338248945772647858 -0.127776414155960083 -0.426775991916656494
0.388683348894119263 -0.121619977056980133 -0.201334968209266663
0.175071194767951965 -0.168578445911407471 -0.408563196659088135
0.13023744523525238 -0.172470182180404663 -0.407460570335388184
0.429726213216781616 -0.0615171156823635101 -0.115938834846019745
0.451454699039459229 -0.0889918133616447449 -0.128683343529701233
-0.31291314959526062 -0.055673450231552124 -0.401402950286865234
0.39729619026184082 -0.106044873595237732 -0.228548049926757812
0.385449647903442383 -0.105176717042922974 -0.235978350043296814
0.437542945146560669 -0.104436516761779785 -0.148411408066749573
0.0141817983239889145 -0.12757408618927002 -0.441752135753631592
0.446799099445343018 -0.0870386213064193726 -0.108092360198497772
-0.154652640223503113 -0.117497310042381287 -0.423319607973098755
-0.0141161344945430756 -0.116293393075466156 -0.413082301616668701
-0.293857306241989136 -0.0825643092393875122 -0.39453202486038208
0.450092524290084839 -0.0164962373673915863 -0.103133015334606171
0.296576201915740967 -0.143049269914627075 -0.334774941205978394
-0.357559025287628174 0.137072265148162842 -0.292662978172302246
0.417190581560134888 -0.0731759369373321533 -0.118969030678272247
0.327913552522659302 -0.13194631040096283 -0.285405576229095459
0.356314688920974731 -0.132188022136688232 -0.248823449015617371
0.365552276372909546 -0.145455077290534973 -0.274468541145324707
-0.267863869667053223 -0.0862245336174964905 -0.411440432071685791
0.464598804712295532 -0.00979917868971824646 -0.0940513983368873596
0.322153747081756592 -0.165349692106246948 -0.308310121297836304
-0.364069461822509766 0.0884408652782440186 -0.362182557582855225
0.35520780086517334 -0.117792606353759766 -0.230775341391563416
-0.0681252703070640564 -0.112231872975826263 -0.409942299127578735
-0.357056528329849243 0.111553005874156952 -0.356463700532913208
0.465028703212738037 -0.0151170529425144196 -0.100146196782588959
0.24199378490447998 -0.168889686465263367 -0.355029851198196411
-0.228790149092674255 -0.10072142630815506 -0.410231679677963257
0.337018221616744995 -0.141474127769470215 -0.262064814567565918
0.445977002382278442 -0.0809520334005355835 -0.148688718676567078
0.439230024814605713 -0.064457423985004425 -0.131057500839233398
0.384879559278488159 -0.116237260401248932 -0.258647948503494263
0.394061118364334106 -0.0943838953971862793 -0.204241096973419189
0.44949573278427124 -0.0425314269959926605 -0.0928238779306411743
0.402782678604125977 -0.0883878692984580994 -0.190395861864089966
0.00572500890120863914 -0.12421724945306778 -0.441560149192810059
0.461408942937850952 -0.0676955133676528931 -0.121647261083126068
0.239188149571418762 -0.160165011882781982 -0.35900995135307312
-0.236533805727958679 -0.0871213600039482117 -0.4253959059715271
-0.240403950214385986 -0.0864036977291107178 -0.420374304056167603
0.127166956663131714 -0.158420860767364502 -0.404008626937866211
0.163285613059997559 -0.163852527737617493 -0.420015037059783936
-0.219783931970596313 -0.105635486543178558 -0.427228957414627075
0.295735627412796021 -0.165304780006408691 -0.350582122802734375
0.190722599625587463 -0.17151188850402832 -0.382751345634460449
0.464796185493469238 -0.0771835893392562866 -0.10010237991809845
0.447279214859008789 -0.0915600508451461792 -0.123706445097923279
-0.363590836524963379 0.0171331018209457397 -0.38368833065032959
0.436203867197036743 -0.0504861362278461456 -0.0965351536870002747
-0.108734175562858582 -0.115526206791400909 -0.435115575790405273
0.33087611198425293 -0.142241880297660828 -0.284657150506973267
0.151963397860527039 -0.146936133503913879 -0.412270873785018921
0.200937122106552124 -0.150494992733001709 -0.395037323236465454
0.312328040599822998 -0.166700258851051331 -0.340625137090682983
-0.389066845178604126 0.0289593171328306198 -0.402181386947631836
-0.308128803968429565 -0.0604213327169418335 -0.403177142143249512
-0.339964538812637329 -0.0189224667847156525 -0.391437500715255737
0.0634744688868522644 -0.136294826865196228 -0.43160712718963623
0.464118212461471558 -0.053107820451259613 -0.102815873920917511
-0.356537699699401855 0.107224263250827789 -0.343118876218795776
-0.375363320112228394 0.034161839634180069 -0.383181154727935791
-0.375149041414260864 0.0891942828893661499 -0.373296797275543213
0.401809394359588623 -0.0962419584393501282 -0.176472365856170654
-0.357708841562271118 0.125606536865234375 -0.316213876008987427
-0.0252422560006380081 -0.114405885338783264 -0.412136286497116089
0.142487213015556335 -0.167589709162712097 -0.405909299850463867
0.00724840816110372543 -0.128853172063827515 -0.421445161104202271
-0.283339858055114746 -0.0765913501381874084 -0.408799529075622559
-0.354146510362625122 0.12391325831413269 -0.3290061354637146
0.408876568078994751 -0.105821311473846436 -0.22153453528881073
0.383935600519180298 -0.12024562805891037 -0.264161139726638794
0.236349046230316162 -0.153306886553764343 -0.383654922246932983
-0.244669362902641296 -0.0961461365222930908 -0.429331839084625244
-0.371052831411361694 0.100830398499965668 -0.368903428316116333
0.197039097547531128 -0.16686151921749115 -0.404821425676345825
-0.366155415773391724 0.0249179042875766754 -0.391436159610748291
0.420570284128189087 -0.097798958420753479 -0.19942137598991394
0.403566420078277588 -0.08615865558385849 -0.186071127653121948
0.464914143085479736 -0.0395110547542572021 -0.0920601785182952881
-0.363353848457336426 0.0166645776480436325 -0.403475403785705566
0.358897417783737183 -0.139824151992797852 -0.248844951391220093
-0.34944501519203186 0.00708413869142532349 -0.393097162246704102
-0.37460675835609436 0.123339973390102386 -0.326826274394989014
-0.393717348575592041 0.0657049790024757385 -0.38168296217918396
-0.0491351224482059479 -0.133587926626205444 -0.419645190238952637
-0.140444725751876831 -0.109545908868312836 -0.410330772399902344
0.376240730285644531 -0.135046720504760742 -0.253183722496032715
0.463158220052719116 -0.0231157559901475906 -0.0903940871357917786
0.427181482315063477 -0.0692204982042312622 -0.128204911947250366
-0.301284283399581909 -0.0761408731341362 -0.40375363826751709
-0.365206927061080933 0.0530687607824802399 -0.391395777463912964
0.384519815444946289 -0.125511094927787781 -0.266462385654449463
0.123902812600135803 -0.170317858457565308 -0.407623648643493652
0.319062322378158569 -0.149276390671730042 -0.337161213159561157
0.366223007440567017 -0.14321562647819519 -0.256666004657745361
0.376765280961990356 -0.10535382479429245 -0.20754106342792511
0.175441727042198181 -0.16414196789264679 -0.386117219924926758
0.173168480396270752 -0.16111832857131958 -0.414965331554412842
-0.15168251097202301 -0.0929776355624198914 -0.417653709650039673
-0.375721454620361328 0.125060275197029114 -0.327604621648788452
0.383087575435638428 -0.107637099921703339 -0.196461603045463562
0.337055832147598267 -0.15951855480670929 -0.314548283815383911
0.293598920106887817 -0.157381013035774231 -0.321396142244338989
0.341518998146057129 -0.137831747531890869 -0.311540186405181885
-0.0569396317005157471 -0.130128622055053711 -0.410774081945419312
-0.375651627779006958 0.11579500138759613 -0.324625343084335327
-0.374976128339767456 0.0711839944124221802 -0.367490977048873901
0.066177666187286377 -0.154700100421905518 -0.426505357027053833
0.0526409521698951721 -0.143378317356109619 -0.416921257972717285
0.306278377771377563 -0.140518590807914734 -0.318106621503829956
0.0570574440062046051 -0.150456875562667847 -0.434036046266555786
0.161083146929740906 -0.173468559980392456 -0.404978066682815552
-0.0682372599840164185 -0.12105260044336319 -0.411290377378463745
0.420767128467559814 -0.103865064680576324 -0.213136941194534302
0.386415362358093262 -0.129668727517127991 -0.261832565069198608
-0.363849610090255737 0.0959316864609718323 -0.377786606550216675
0.429760843515396118 -0.0826441645622253418 -0.114044129848480225
0.419425785541534424 -0.0774621590971946716 -0.117413565516471863
-0.229170963168144226 -0.10172802209854126 -0.427872449159622192
-0.357030898332595825 0.0247612409293651581 -0.401401996612548828
0.195530369877815247 -0.173747867345809937 -0.388823598623275757
0.432394117116928101 -0.0707451924681663513 -0.0990608632564544678
-0.212344199419021606 -0.0990740135312080383 -0.410559684038162231
-0.381849944591522217 0.039216257631778717 -0.384805679321289062
-0.170518890023231506 -0.0910000503063201904 -0.422639042139053345
0.464891940355300903 -0.033147815614938736 -0.0912915989756584167
0.43665352463722229 -0.0942563340067863464 -0.168021529912948608
0.287347137928009033 -0.153496101498603821 -0.33783838152885437
0.417022943496704102 -0.0812567248940467834 -0.163549229502677917
0.366102129220962524 -0.113431520760059357 -0.230628415942192078
-0.375458806753158569 0.0675763562321662903 -0.371343433856964111
0.31514701247215271 -0.164121136069297791 -0.336115360260009766
-0.288348942995071411 -0.0868753194808959961 -0.398134380578994751
0.362457096576690674 -0.115217410027980804 -0.250694423913955688
-0.356167495250701904 0.138334944844245911 -0.297949880361557007
-0.363953858613967896 0.0877313166856765747 -0.376283168792724609
0.458810865879058838 -0.0239073708653450012 -0.0841341465711593628
-0.0246268119663000107 -0.123719841241836548 -0.409867465496063232
0.125711023807525635 -0.165302649140357971 -0.414868414402008057
-0.379825085401535034 0.0673711299896240234 -0.374468386173248291
-0.300255119800567627 -0.0765050947666168213 -0.395147025585174561
-0.374439924955368042 0.108794614672660828 -0.351762652397155762
0.00988668296486139297 -0.125634163618087769 -0.441700190305709839
-0.259860038757324219 -0.0921489596366882324 -0.40998569130897522
0.401925802230834961 -0.121628634631633759 -0.244160518050193787
0.00683296332135796547 -0.13501441478729248 -0.442681312561035156
0.383400768041610718 -0.102394573390483856 -0.210491389036178589
-0.0946996510028839111 -0.118981748819351196 -0.409637182950973511
-0.360202610492706299 -0.0244713705033063889 -0.39098656177520752
0.0111544476822018623 -0.127039358019828796 -0.442094892263412476
0.16743294894695282 -0.167637616395950317 -0.414883196353912354
-0.194674879312515259 -0.0874077603220939636 -0.417398333549499512
-0.0957801342010498047 -0.101378388702869415 -0.429148286581039429
-0.366601258516311646 0.0222627762705087662 -0.390248417854309082
0.417215436697006226 -0.101338788866996765 -0.146398141980171204
-0.199248462915420532 -0.0934605970978736877 -0.434381812810897827
0.0016703036380931735 -0.130486562848091125 -0.419860601425170898
-0.138458400964736938 -0.108305871486663818 -0.411712050437927246
0.358474165201187134 -0.151498258113861084 -0.295245707035064697
0.392501592636108398 -0.0957105830311775208 -0.200696736574172974
-0.348007529973983765 -0.0327092595398426056 -0.391226917505264282
-0.340224385261535645 -0.0312084238976240158 -0.392744570970535278
-0.366021543741226196 0.129641264677047729 -0.291845798492431641
-0.348834514617919922 -0.0427313148975372314 -0.404064744710922241
0.207027271389961243 -0.152938082814216614 -0.382604062557220459
0.415418535470962524 -0.0867540538311004639 -0.132735550403594971
-0.329511404037475586 -0.0387561582028865814 -0.399341315031051636
-0.364040523767471313 0.110158979892730713 -0.335268765687942505
-0.339958786964416504 -0.0571888536214828491 -0.388977944850921631
0.140668481588363647 -0.174215242266654968 -0.399405509233474731
0.114993453025817871 -0.150668293237686157 -0.427919089794158936
-0.14325287938117981 -0.11022583395242691 -0.435032099485397339
-0.268469870090484619 -0.0983643010258674622 -0.403687655925750732
0.258159399032592773 -0.15540274977684021 -0.353126645088195801
0.347650587558746338 -0.150996401906013489 -0.315560370683670044
0.447040051221847534 -0.0893612280488014221 -0.156474888324737549
-0.324030101299285889 -0.0398281365633010864 -0.39080318808555603
0.366740971803665161 -0.112685568630695343 -0.255377620458602905
0.267656862735748291 -0.160246819257736206 -0.346366643905639648
0.427211374044418335 -0.0951155573129653931 -0.195040225982666016
0.457529425621032715 -0.0689227655529975891 -0.126634016633033752
-0.375101864337921143 0.125297024846076965 -0.321653544902801514
0.298001676797866821 -0.163071885704994202 -0.35454210638999939
-0.179245010018348694 -0.101182729005813599 -0.412933170795440674
0.420143604278564453 -0.0770359709858894348 -0.117824777960777283
0.418759137392044067 -0.074840448796749115 -0.131035014986991882
-0.349732309579849243 0.00465090759098529816 -0.403053969144821167
0.44357946515083313 -0.0911773741245269775 -0.123836018145084381
-0.373554974794387817 0.00735060777515172958 -0.395022600889205933
0.382538467645645142 -0.125210970640182495 -0.215261206030845642
-0.102569304406642914 -0.0964462533593177795 -0.423544019460678101
0.443312734365463257 -0.0492390207946300507 -0.103670611977577209
-0.0410969555377960205 -0.134146586060523987 -0.418228000402450562
-0.363738268613815308 0.128755927085876465 -0.302680313587188721
-0.375547617673873901 0.117808811366558075 -0.326656699180603027
0.337054967880249023 -0.133074089884757996 -0.274276077747344971
-0.376211941242218018 0.0829079300165176392 -0.362409234046936035
-0.368441164493560791 0.0776144787669181824 -0.366596817970275879
-0.319753676652908325 -0.0371957272291183472 -0.391928553581237793
-0.397971510887145996 0.0722091645002365112 -0.3780631422996521
0.427694648504257202 -0.0894791781902313232 -0.178721711039543152
0.343922406435012817 -0.131021812558174133 -0.301152259111404419
-0.0150675578042864799 -0.11772463470697403 -0.409283488988876343
0.428041636943817139 -0.0588077344000339508 -0.106783688068389893
0.376685202121734619 -0.102509833872318268 -0.229756101965904236
0.4135875403881073 -0.0843438804149627686 -0.154269754886627197
0.455088108777999878 -0.0443587079644203186 -0.0938223525881767273
0.439629971981048584 -0.0669474005699157715 -0.136096358299255371
0.438054263591766357 -0.0508048124611377716 -0.0982425287365913391
-0.34483635425567627 -0.0159877538681030273 -0.386915385723114014
-0.366077572107315063 0.0233310181647539139 -0.400319457054138184
0.234614938497543335 -0.154974162578582764 -0.367152690887451172
-0.366437435150146484 0.061933562159538269 -0.379868358373641968
0.464003890752792358 -0.0701590776443481445 -0.102500550448894501
0.434118926525115967 -0.0574439540505409241 -0.110572762787342072
-0.356619894504547119 0.107441768050193787 -0.348615795373916626
0.401984512805938721 -0.0919139161705970764 -0.166903361678123474
0.436149746179580688 -0.107452541589736938 -0.149604067206382751
0.355247676372528076 -0.127059847116470337 -0.290532380342483521
0.423908531665802002 -0.0957818552851676941 -0.199041977524757385
0.0235241595655679703 -0.123909123241901398 -0.434511184692382812
-0.34079095721244812 -0.0287380628287792206 -0.385104954242706299
-0.37477836012840271 0.126987308263778687 -0.326138854026794434
0.438373386859893799 -0.0834200754761695862 -0.104376986622810364
-0.376257032155990601 0.0779212266206741333 -0.375970810651779175
-0.373169749975204468 0.0775944367051124573 -0.380938857793807983
0.427887201309204102 -0.0758740976452827454 -0.144814744591712952
0.3029288649559021 -0.156872287392616272 -0.306365132331848145
0.464814722537994385 -0.055512700229883194 -0.104895301163196564
-0.374696612358093262 0.106379948556423187 -0.359142541885375977
-0.379446446895599365 0.0232528913766145706 -0.383811384439468384
0.283851534128189087 -0.162105992436408997 -0.359334290027618408
0.353575050830841064 -0.116242922842502594 -0.274820864200592041
-0.165364131331443787 -0.111903704702854156 -0.430871039628982544
0.335352957248687744 -0.131822898983955383 -0.304076671600341797
-0.35628548264503479 0.128733471035957336 -0.303753286600112915
0.420376390218734741 -0.0766716450452804565 -0.135414242744445801
-0.372332751750946045 0.0497428737580776215 -0.382130622863769531
-0.375511050224304199 0.12831464409828186 -0.319189161062240601
0.464754611253738403 -0.0147544592618942261 -0.0768107995390892029
-0.00758563028648495674 -0.13578382134437561 -0.417048603296279907
0.363511472940444946 -0.115877501666545868 -0.267468750476837158
0.0464249216020107269 -0.153529688715934753 -0.436372846364974976
0.44967237114906311 -0.01688433438539505 -0.102140113711357117
0.436197966337203979 -0.0914704054594039917 -0.169909030199050903
-0.227138340473175049 -0.0973002016544342041 -0.428817629814147949
0.45635494589805603 -0.0584447272121906281 -0.0892101898789405823
0.168845772743225098 -0.155996352434158325 -0.413067996501922607
-0.267928212881088257 -0.103357687592506409 -0.4092254638671875
-0.0469223484396934509 -0.109766766428947449 -0.418222576379776001
0.063975118100643158 -0.136302530765533447 -0.431464463472366333
-0.36687895655632019 0.107400558888912201 -0.334702461957931519
-0.389423072338104248 0.0555886775255203247 -0.382616162300109863
0.424254000186920166 -0.108320675790309906 -0.191490873694419861
0.321513235569000244 -0.1348438560962677 -0.291807353496551514
-0.378107637166976929 0.057541724294424057 -0.386604487895965576
-0.355160832405090332 0.132927149534225464 -0.317646831274032593
0.44569358229637146 -0.0720849186182022095 -0.142022907733917236
0.297917187213897705 -0.166394442319869995 -0.335015207529067993
0.415175348520278931 -0.0849533751606941223 -0.137186482548713684
0.420007288455963135 -0.073434881865978241 -0.126700654625892639
0.38363945484161377 -0.121313199400901794 -0.263967424631118774
0.418741703033447266 -0.0774886980652809143 -0.155026108026504517
-0.137773871421813965 -0.100109755992889404 -0.430284380912780762
-0.053748689591884613 -0.123095571994781494 -0.409227490425109863
0.401529252529144287 -0.108995541930198669 -0.183901175856590271
-0.399389505386352539 0.0550992079079151154 -0.38799622654914856
0.420113146305084229 -0.10985313355922699 -0.212135568261146545
0.347794204950332642 -0.136518493294715881 -0.306928128004074097
0.402209043502807617 -0.0933669209480285645 -0.211239904165267944
0.411994606256484985 -0.108783170580863953 -0.164856880903244019
0.291532337665557861 -0.148136734962463379 -0.344064980745315552
0.383095532655715942 -0.116990908980369568 -0.207702547311782837
0.337413609027862549 -0.13696819543838501 -0.316336095333099365
0.401819199323654175 -0.0898311734199523926 -0.171233236789703369
-0.253762245178222656 -0.0933125466108322144 -0.412409156560897827
0.23062877357006073 -0.159513384103775024 -0.371687024831771851
-0.232978150248527527 -0.0858606919646263123 -0.42508271336555481
-0.199868664145469666 -0.0845014229416847229 -0.419257909059524536
0.356420129537582397 -0.142559036612510681 -0.254264235496520996
0.374431878328323364 -0.130283981561660767 -0.280182749032974243
-0.360168784856796265 0.129709526896476746 -0.298427224159240723
0.410640984773635864 -0.098816990852355957 -0.212667286396026611
0.445584148168563843 -0.0880180671811103821 -0.151223823428153992
0.445939421653747559 -0.019679756835103035 -0.113369956612586975
0.130027130246162415 -0.16100725531578064 -0.405676394701004028
0.397561967372894287 -0.0927512422204017639 -0.205970466136932373
0.321245133876800537 -0.164882764220237732 -0.310517251491546631
0.402399420738220215 -0.123271070420742035 -0.236170023679733276
0.410936146974563599 -0.0936999917030334473 -0.147711604833602905
0.333281427621841431 -0.159493118524551392 -0.295798569917678833
-0.37358364462852478 0.116574421525001526 -0.347441107034683228
0.464264720678329468 -0.0151778319850564003 -0.104790300130844116
-0.202309951186180115 -0.0857245773077011108 -0.421511530876159668
0.0716588050127029419 -0.14020402729511261 -0.411177396774291992
0.447326958179473877 -0.0213978588581085205 -0.108161918818950653
0.199137121438980103 -0.170587614178657532 -0.375743448734283447
0.129944592714309692 -0.150538057088851929 -0.424501955509185791
0.353203773498535156 -0.12616749107837677 -0.24990411102771759
-0.028233308345079422 -0.112357042729854584 -0.416003495454788208
0.342728853225708008 -0.129245936870574951 -0.301787525415420532
0.367552489042282104 -0.147927582263946533 -0.271210551261901855
0.448442697525024414 -0.0506829209625720978 -0.0932154059410095215
-0.383850157260894775 0.0284394789487123489 -0.404919594526290894
0.196700602769851685 -0.174278751015663147 -0.3895854651927948
-0.187253847718238831 -0.107902862131595612 -0.431505143642425537
0.260035455226898193 -0.171476036310195923 -0.355541259050369263
-0.366760045289993286 0.0649732425808906555 -0.379501491785049438
0.237364217638969421 -0.165884450078010559 -0.359979927539825439
0.198372930288314819 -0.149575069546699524 -0.395844012498855591
0.134512975811958313 -0.158889010548591614 -0.404077351093292236
0.305263787508010864 -0.165701702237129211 -0.335899800062179565
0.398332208395004272 -0.1300983726978302 -0.229927495121955872
0.37258833646774292 -0.108523629605770111 -0.246548235416412354
0.425270378589630127 -0.08995770663022995 -0.122046872973442078
0.177654191851615906 -0.161618039011955261 -0.382364332675933838
0.447130262851715088 -0.0189280863851308823 -0.113967858254909515
0.365240126848220825 -0.109980225563049316 -0.245215266942977905
0.197007939219474792 -0.162335887551307678 -0.405971258878707886
-0.357478588819503784 0.0910958275198936462 -0.378574937582015991
-0.384976893663406372 0.0294498056173324585 -0.389083653688430786
0.294186860322952271 -0.160608574748039246 -0.358959287405014038
-0.384099990129470825 0.0328125245869159698 -0.385898590087890625
0.357996493577957153 -0.137144550681114197 -0.251369744539260864
-0.348877310752868652 -0.0350899659097194672 -0.398805171251296997
0.265142172574996948 -0.171519100666046143 -0.366499662399291992
0.400897353887557983 -0.102640330791473389 -0.16972622275352478
0.0711915567517280579 -0.150917813181877136 -0.413317620754241943
0.403256773948669434 -0.12983451783657074 -0.23784869909286499
-0.247084438800811768 -0.0985885486006736755 -0.422127306461334229
0.438244223594665527 -0.0870104581117630005 -0.113268405199050903
0.429746299982070923 -0.0622765235602855682 -0.097703985869884491
-0.0889367833733558655 -0.124315224587917328 -0.422567456960678101
-0.359364211559295654 0.0301828403025865555 -0.399256616830825806
-0.224519774317741394 -0.0889823511242866516 -0.41295236349105835
0.384083956480026245 -0.127379938960075378 -0.26639401912689209
0.43126147985458374 -0.0601347051560878754 -0.114282503724098206
-0.258987665176391602 -0.0977206826210021973 -0.417767822742462158
-0.354314625263214111 0.0126633122563362122 -0.404461145401000977
0.354695111513137817 -0.13654075562953949 -0.300862371921539307
0.458047956228256226 -0.0159844402223825455 -0.0861632078886032104
-0.37308695912361145 0.11170901358127594 -0.354883581399917603
0.387573093175888062 -0.116080157458782196 -0.190641686320304871
-0.373502850532531738 0.0826264321804046631 -0.384430348873138428
-0.284377455711364746 -0.0879157707095146179 -0.401840865612030029
0.188705950975418091 -0.168367877602577209 -0.408680886030197144
0.313266515731811523 -0.133105888962745667 -0.306977987289428711
-0.365885674953460693 0.044758085161447525 -0.390017867088317871
-0.265410423278808594 -0.0881911218166351318 -0.412161350250244141
0.359084457159042358 -0.114468105137348175 -0.231755286455154419
-0.100731849670410156 -0.121792688965797424 -0.427485883235931396
0.301731079816818237 -0.147077277302742004 -0.30900198221206665
-0.342856615781784058 -0.0548705235123634338 -0.390449941158294678
0.329514890909194946 -0.1285390704870224 -0.282145261764526367
-0.360301464796066284 0.0159944314509630203 -0.40282788872718811
0.325867682695388794 -0.145608946681022644 -0.331226378679275513
0.371503829956054688 -0.139194726943969727 -0.244004294276237488
0.366207242012023926 -0.117139436304569244 -0.269672036170959473
0.294138699769973755 -0.149100527167320251 -0.346287637948989868
0.415669500827789307 -0.0998527780175209045 -0.143869251012802124
0.464162439107894897 -0.0780473649501800537 -0.116841934621334076
0.388746708631515503 -0.112612433731555939 -0.247797936201095581
0.175808683037757874 -0.171341747045516968 -0.410869032144546509
0.156203582882881165 -0.149336010217666626 -0.406082659959793091
-0.326275795698165894 -0.0458944402635097504 -0.405309706926345825
-0.40218663215637207 0.0571354366838932037 -0.386197030544281006
0.345477879047393799 -0.144739836454391479 -0.270479649305343628
0.33995586633682251 -0.154187902808189392 -0.320108532905578613
0.465416163206100464 -0.020410928875207901 -0.0863435491919517517
0.425009638071060181 -0.0765486881136894226 -0.155771508812904358
-0.367387622594833374 0.0246264226734638214 -0.387713968753814697
0.377198517322540283 -0.127061128616333008 -0.276337504386901855
-0.374179869890213013 0.138907015323638916 -0.28802141547203064
-0.0435497425496578217 -0.110389426350593567 -0.425205022096633911
0.42271125316619873 -0.1123056560754776 -0.198654130101203918
0.381326287984848022 -0.110094346106052399 -0.203507989645004272
0.365802526473999023 -0.120469287037849426 -0.275350302457809448
-0.182978913187980652 -0.0934653505682945251 -0.417478501796722412
0.439084559679031372 -0.097983822226524353 -0.133779942989349365
-0.176958188414573669 -0.0942969620227813721 -0.416046202182769775
-0.36517825722694397 0.0757419094443321228 -0.382399290800094604
0.137595668435096741 -0.170072987675666809 -0.410150259733200073
-0.37290462851524353 0.0436141937971115112 -0.381516158580780029
0.321881234645843506 -0.136904239654541016 -0.289829492568969727
-0.349852591753005981 -0.0363835692405700684 -0.401261806488037109
-0.376711726188659668 0.0782450884580612183 -0.366535604000091553
-0.378267168998718262 0.0452228747308254242 -0.399941056966781616
-0.194934383034706116 -0.108236938714981079 -0.430678248405456543
-0.365524858236312866 0.0194520018994808197 -0.389273017644882202
-0.35700497031211853 -0.0292725693434476852 -0.392539232969284058
-0.371223300695419312 0.104598246514797211 -0.368070214986801147
0.0135781271383166313 -0.13548550009727478 -0.442184150218963623
0.399496108293533325 -0.0927662327885627747 -0.210042238235473633
-0.0680143535137176514 -0.122611828148365021 -0.430394798517227173
0.340363651514053345 -0.137158587574958801 -0.272321850061416626
0.411705046892166138 -0.106016092002391815 -0.160104453563690186
0.364908576011657715 -0.147930487990379333 -0.266133308410644531
-0.360144108533859253 -0.00732853775843977928 -0.391455918550491333
0.379379838705062866 -0.109750516712665558 -0.205255165696144104
0.464582443237304688 -0.0784929916262626648 -0.101811148226261139
0.342755377292633057 -0.125564455986022949 -0.294818878173828125
-0.0263998545706272125 -0.13221365213394165 -0.414355933666229248
-0.101801998913288116 -0.101442545652389526 -0.418114423751831055
-0.365643888711929321 0.0261089447885751724 -0.390595614910125732
0.345136821269989014 -0.137000903487205505 -0.255660414695739746
-0.361079514026641846 -0.0167347490787506104 -0.398215293884277344
0.463357627391815186 -0.0270779542624950409 -0.0956503376364707947
0.304394692182540894 -0.161499887704849243 -0.315453678369522095
0.429716974496841431 -0.0779360309243202209 -0.108906485140323639
-0.123741470277309418 -0.0997033566236495972 -0.428514212369918823
-0.36614343523979187 0.0668880194425582886 -0.380638808012008667
-0.0204733181744813919 -0.113010004162788391 -0.414021134376525879
-0.373124629259109497 0.0899690017104148865 -0.366738379001617432
0.182893514633178711 -0.148533716797828674 -0.391329556703567505
0.337286293506622314 -0.128391489386558533 -0.290755480527877808
-0.147874236106872559 -0.117755688726902008 -0.420795738697052002
0.43707546591758728 -0.105222940444946289 -0.144477695226669312
0.42861446738243103 -0.0683761760592460632 -0.100420743227005005
0.427762478590011597 -0.0612838342785835266 -0.103778623044490814
-0.3736133873462677 0.0711812078952789307 -0.376759946346282959
-0.370455116033554077 0.119564197957515717 -0.346713274717330933
0.456033319234848022 -0.0907163694500923157 -0.137169554829597473
0.422481268644332886 -0.102513819932937622 -0.202418506145477295
0.256122052669525146 -0.1685476154088974 -0.351974189281463623
0.376646101474761963 -0.134989723563194275 -0.28113400936126709
0.344342917203903198 -0.126822486519813538 -0.266159206628799438
0.446026235818862915 -0.0796098113059997559 -0.100738510489463806
-0.152338147163391113 -0.109620571136474609 -0.436227172613143921
0.369013786315917969 -0.111782997846603394 -0.255973577499389648
-0.268273890018463135 -0.0965988337993621826 -0.419655412435531616
0.458864659070968628 -0.0442101247608661652 -0.0958096832036972046
0.212542921304702759 -0.159781888127326965 -0.400532513856887817
0.221069082617759705 -0.170786798000335693 -0.373617768287658691
-0.228310272097587585 -0.104863390326499939 -0.418583899736404419
0.347137600183486938 -0.135300338268280029 -0.304127275943756104
0.420161515474319458 -0.117342092096805573 -0.181005239486694336
0.0659127086400985718 -0.137576133012771606 -0.417633563280105591
-0.342621982097625732 -0.0286232996731996536 -0.386999547481536865
-0.373477339744567871 0.139927610754966736 -0.299551874399185181
-0.226374611258506775 -0.10403374582529068 -0.414638280868530273
-0.129002034664154053 -0.11849115788936615 -0.423321515321731567
-0.322033166885375977 -0.0713596567511558533 -0.3943023681640625
0.364511489868164062 -0.145817354321479797 -0.253137350082397461
0.337569594383239746 -0.124244578182697296 -0.280688494443893433
0.437622219324111938 -0.088343791663646698 -0.165799811482429504
0.385139793157577515 -0.105728760361671448 -0.237155675888061523
0.464075446128845215 -0.0689523741602897644 -0.104228571057319641
0.253610491752624512 -0.169438853859901428 -0.353033691644668579
0.131082147359848022 -0.173674911260604858 -0.40400126576423645
-0.350299149751663208 0.0127815017476677895 -0.394190341234207153
0.446807056665420532 -0.0280004609376192093 -0.111214198172092438
0.404705613851547241 -0.0914061665534973145 -0.193541035056114197
0.224566593766212463 -0.157810106873512268 -0.375858873128890991
-0.292009174823760986 -0.0790095925331115723 -0.398227304220199585
0.419411361217498779 -0.0738067924976348877 -0.121564455330371857
0.354320526123046875 -0.124180734157562256 -0.288857579231262207
0.103787221014499664 -0.142989963293075562 -0.421540170907974243
0.13411964476108551 -0.142629265785217285 -0.417387306690216064
0.384185075759887695 -0.123292140662670135 -0.21135324239730835
-0.120063379406929016 -0.107382707297801971 -0.434209108352661133
-0.13060760498046875 -0.0983779951930046082 -0.429108023643493652
-0.375331401824951172 0.101140119135379791 -0.364509940147399902
-0.0644328668713569641 -0.126965910196304321 -0.42631453275680542
0.295718967914581299 -0.1613188236951828 -0.33454209566116333
-0.386120021343231201 0.030139947310090065 -0.401541560888290405
-0.350614458322525024 -0.00380952656269073486 -0.386148512363433838
0.250287145376205444 -0.155782878398895264 -0.36349797248840332
-0.274177670478820801 -0.0832418650388717651 -0.402630895376205444
-0.365473628044128418 0.132302030920982361 -0.287071079015731812
